# .PCD v0.7 - Point Cloud Data file format
VERSION 0.7
FIELDS x y z
SIZE 4 4 4
TYPE F F F
COUNT 1 1 1
WIDTH 139
HEIGHT 1
VIEWPOINT 0 0 0 1 0 0 0
POINTS 139
DATA ascii
-0.093771838 -0.094701044 0.41855332
-0.084998995 -0.094339289 0.41746166
-0.076234415 -0.094345324 0.41828889
-0.090743966 -0.089403771 0.41900009
-0.085179195 -0.088610239 0.41877282
-0.079376377 -0.089306794 0.41900009
-0.11210632 -0.091935344 0.42818758
-0.10512661 -0.093454279 0.42361069
-0.097256333 -0.091752887 0.42006531
-0.072595328 -0.092153817 0.42030191
-0.064254627 -0.094189756 0.42289826
-0.056083042 -0.094558991 0.42561772
-0.049917523 -0.097345859 0.42900002
-0.11107356 -0.08855664 0.4287692
-0.10478909 -0.085426264 0.42577663
-0.095009021 -0.084925458 0.42109048
-0.084839948 -0.083735347 0.42046645
-0.074855097 -0.084889248 0.42134768
-0.065018937 -0.085024327 0.42482051
-0.058506262 -0.087208159 0.42821956
-0.1037512 -0.075399689 0.42676049
-0.094878636 -0.074731939 0.42359921
-0.085127264 -0.074956954 0.42258847
-0.074907519 -0.075036444 0.42392302
-0.066376463 -0.075640164 0.42760152
-0.10162237 -0.069294497 0.42881817
-0.093603477 -0.067136593 0.42875046
-0.0848924 -0.064944424 0.42692849
-0.075251848 -0.065276481 0.42657712
-0.068043746 -0.068280928 0.42870003
-0.091001138 -0.057807222 0.42899993
-0.084747329 -0.055674579 0.42838323
-0.07702899 -0.057149645 0.42809772
-0.087299861 -0.049042311 0.42899996
-0.051810842 -0.092249222 0.43425009
-0.046820149 -0.095347531 0.43540445
-0.1128819 -0.083373994 0.43158326
-0.10968399 -0.083378822 0.43000004
-0.060483534 -0.080505207 0.43000001
-0.054770935 -0.084809922 0.43440077
-0.11279996 -0.074521273 0.43274733
-0.10847555 -0.073682792 0.43079254
-0.06166831 -0.07384184 0.43053949
-0.056052074 -0.075060233 0.43515328
-0.11215621 -0.066482283 0.43776664
-0.10502183 -0.064838737 0.43317232
-0.095888644 -0.064213403 0.43074632
-0.071092598 -0.06133572 0.43140003
-0.064651281 -0.064503893 0.43288049
-0.056859251 -0.066616252 0.43624073
-0.11086822 -0.055075776 0.43868971
-0.10503948 -0.054977518 0.43494093
-0.09563075 -0.054789934 0.43110907
-0.085366145 -0.05160268 0.43006673
-0.073690608 -0.054046221 0.43162394
-0.067233905 -0.054736033 0.436795
-0.11046834 -0.048407443 0.43900007
-0.10383804 -0.045732249 0.43697834
-0.094870001 -0.045091126 0.43279412
-0.084875159 -0.044913352 0.43144417
-0.074912898 -0.045036349 0.43313953
-0.065974265 -0.044905525 0.43688202
-0.10152875 -0.037538666 0.43865225
-0.094891034 -0.036008757 0.43718606
-0.084884837 -0.035145864 0.43621203
-0.075041197 -0.035025377 0.43720075
-0.067580983 -0.037466694 0.43871728
-0.084352314 -0.028164187 0.43888864
-0.076690137 -0.028518425 0.43881583
-0.04554842 -0.092227332 0.44244775
-0.050933804 -0.082998283 0.44031584
-0.046976656 -0.085254475 0.44454804
-0.051120427 -0.075616665 0.44250983
-0.049053192 -0.077441469 0.44733348
-0.11434969 -0.063594639 0.44074005
-0.061945416 -0.06069104 0.44040003
-0.053856503 -0.063628837 0.44352472
-0.1138382 -0.056907002 0.44092312
-0.062453341 -0.055506878 0.44100991
-0.056135144 -0.055366371 0.44475788
-0.11251497 -0.043259986 0.44320002
-0.10769667 -0.043157693 0.44044727
-0.061123423 -0.044502616 0.44059515
-0.057437595 -0.045543719 0.44493359
-0.11201981 -0.035319615 0.44679019
-0.10574433 -0.03466611 0.44287005
-0.095505565 -0.031007564 0.44042096
-0.089691065 -0.030696813 0.44000003
-0.070444264 -0.030696813 0.44000003
-0.064120971 -0.034307167 0.44228613
-0.058616444 -0.035747521 0.44707814
-0.10417151 -0.025385207 0.44555485
-0.095022537 -0.025206449 0.44151178
-0.085397936 -0.023473984 0.44077644
-0.074606888 -0.024124784 0.44088966
-0.065247662 -0.025386611 0.44433856
-0.059274197 -0.027747381 0.44880006
-0.10246823 -0.015540997 0.44775319
-0.094870456 -0.015124018 0.44408947
-0.08495421 -0.015104112 0.44332862
-0.074902102 -0.015146335 0.44410738
-0.067478552 -0.0158167 0.44708407
-0.10124371 -0.0072933119 0.44873542
-0.094753385 -0.0050838217 0.44694442
-0.085010611 -0.005136495 0.44710106
-0.075069681 -0.0055126701 0.44704407
-0.068628661 -0.0081461677 0.44839135
-0.044401586 -0.081767052 0.45194116
-0.046668794 -0.074979804 0.45406759
-0.050576519 -0.064279795 0.45142859
-0.047799401 -0.065193556 0.45586756
-0.05159799 -0.05417899 0.45166075
-0.048312083 -0.055197712 0.45581082
-0.052619882 -0.044486165 0.453237
-0.048481528 -0.045536682 0.45781821
-0.11441493 -0.031332757 0.45135722
-0.053904958 -0.034701299 0.45488164
-0.049105342 -0.037392706 0.45875001
-0.1131251 -0.025396649 0.4524428
-0.10865332 -0.021832673 0.45042858
-0.061178338 -0.021507585 0.45128569
-0.055967372 -0.025342066 0.45520285
-0.11199994 -0.016323883 0.45236528
-0.10753737 -0.01458762 0.45108753
-0.062706582 -0.01462067 0.4525848
-0.057665449 -0.014925147 0.45703208
-0.11160272 -0.0054338826 0.45600006
-0.10587963 -0.0047331341 0.4526642
-0.072534509 -0.00087131932 0.45042104
-0.064571947 -0.0048623844 0.45284319
-0.058429603 -0.0069125518 0.45744181
-0.04670275 -0.046337619 0.46000001
-0.050543629 -0.032464739 0.46000001
-0.048699755 -0.034238603 0.46018186
-0.051623259 -0.023441611 0.46131364
-0.049362414 -0.02553872 0.4629167
-0.052767951 -0.015096748 0.46169382
-0.054438941 -0.0043763183 0.46455184
-0.049263265 -0.0049212254 0.4680714
