# .PCD v0.7 - Point Cloud Data file format
VERSION 0.7
FIELDS x y z
SIZE 4 4 4
TYPE F F F
COUNT 1 1 1
WIDTH 312
HEIGHT 1
VIEWPOINT 0 0 0 1 0 0 0
POINTS 312
DATA ascii
0.12777191 -0.15232532 0.4772093
0.13461624 -0.15332603 0.47377059
0.14451967 -0.15310988 0.47570151
0.15047845 -0.15154991 0.47833335
0.12590337 -0.14549235 0.47775698
0.13498087 -0.14473686 0.47488722
0.14455381 -0.14449076 0.47599962
0.15120611 -0.14604306 0.47865385
0.14719604 -0.13895626 0.47900006
0.12771772 -0.12302569 0.47900003
0.13051143 -0.12265986 0.47900003
0.12895937 -0.1199438 0.47900003
0.12774493 -0.18178736 0.48879316
0.13571869 -0.18376133 0.48760471
0.14482258 -0.18360196 0.48609939
0.15309189 -0.18453148 0.48760259
0.13523661 -0.16223171 0.48722228
0.14369304 -0.16089892 0.48550001
0.15134652 -0.16073878 0.48800004
0.11854409 -0.15160987 0.48781818
0.12512046 -0.15484786 0.48435092
0.1333829 -0.15944034 0.48278573
0.14694709 -0.15812238 0.48199999
0.15455125 -0.15420297 0.48452637
0.11735877 -0.14469624 0.4852086
0.12297192 -0.14328882 0.48042849
0.1307839 -0.14080165 0.48000002
0.14944746 -0.14080164 0.48000002
0.15575548 -0.14429235 0.48270705
0.16230762 -0.1435243 0.48736176
0.11635716 -0.13486028 0.48628214
0.12488845 -0.13534722 0.48270273
0.13504218 -0.13546048 0.48172143
0.14485238 -0.13506566 0.48112145
0.15475515 -0.13507116 0.483511
0.16196474 -0.13702475 0.48828137
0.11607098 -0.12483185 0.48519248
0.12402782 -0.12509589 0.48056993
0.13502976 -0.12509014 0.48029596
0.1449305 -0.12507594 0.48161763
0.1547318 -0.12487506 0.48376408
0.1617166 -0.12467288 0.48700017
0.11639105 -0.11570553 0.48723939
0.12486263 -0.11501864 0.48424309
0.134882 -0.11492969 0.48232651
0.14516132 -0.11497384 0.4841935
0.15460423 -0.11511895 0.48579878
0.16073543 -0.11705478 0.48766667
0.11937208 -0.10977233 0.48900002
0.12688808 -0.10615467 0.48824725
0.13489254 -0.10463912 0.48621708
0.14489891 -0.10482714 0.48731253
0.15178873 -0.10652753 0.48875687
0.12927495 -0.099473462 0.48900002
0.13613126 -0.098398946 0.48884222
0.1443188 -0.098053373 0.48887056
0.11828778 -0.19126883 0.49766675
0.12427155 -0.19089852 0.49484
0.13228379 -0.19047588 0.49283338
0.15973134 -0.19131327 0.49500003
0.16053329 -0.19131327 0.49500003
0.1176559 -0.18446098 0.49675554
0.12419657 -0.1846913 0.49231181
0.1346678 -0.18403774 0.49183807
0.14500034 -0.18027359 0.49324
0.15591177 -0.18246002 0.49355173
0.16066283 -0.18560387 0.49628577
0.11810692 -0.17971975 0.49787503
0.12570201 -0.17897095 0.49554837
0.13366605 -0.17917813 0.49595556
0.14384978 -0.17956246 0.49400005
0.15079239 -0.17979175 0.49200001
0.12722963 -0.16214228 0.49520832
0.13127027 -0.16463558 0.49422222
0.14344315 -0.16340822 0.49037501
0.15728483 -0.16267663 0.49620005
0.16129057 -0.16052304 0.49733335
0.10928255 -0.15001293 0.49900001
0.11486772 -0.15352099 0.49528959
0.12229167 -0.1573076 0.49365211
0.15880549 -0.15683977 0.49142864
0.16295497 -0.15458535 0.49462068
0.10902315 -0.14360139 0.49766669
0.11254158 -0.14531842 0.49408346
0.16750579 -0.14412488 0.49447829
0.10927368 -0.13545647 0.49633339
0.11161335 -0.13526417 0.49218464
0.1645658 -0.1359417 0.49330771
0.10864174 -0.12375895 0.49710622
0.11121068 -0.1253202 0.49258181
0.16487145 -0.12222619 0.49336371
0.10885756 -0.11720774 0.4963429
0.11233865 -0.11364983 0.49285257
0.15889102 -0.11142206 0.49028572
0.16324279 -0.1142124 0.49405265
0.11649612 -0.10549828 0.49484846
0.12284972 -0.10401265 0.49084532
0.15635353 -0.10473377 0.49135816
0.16173522 -0.10501701 0.49382934
0.11769597 -0.095534995 0.49682313
0.12476914 -0.094895378 0.49148586
0.13481446 -0.094034366 0.49143016
0.14521338 -0.09327887 0.49214336
0.15497036 -0.094794177 0.49296871
0.16162783 -0.09512303 0.49627289
0.11890372 -0.088041544 0.49866673
0.12500033 -0.085281208 0.49482867
0.1350224 -0.0852217 0.49438155
0.14486991 -0.0849922 0.49478611
0.15453407 -0.085127659 0.49703223
0.16021369 -0.084369175 0.49900004
0.118035 -0.073647559 0.49638245
0.12488855 -0.074937731 0.49176729
0.13515787 -0.075058311 0.49204737
0.14495569 -0.074954659 0.49232185
0.15476899 -0.075092591 0.49558482
0.11832742 -0.067060284 0.49740905
0.12505065 -0.065298386 0.4958955
0.1349798 -0.065220863 0.49521318
0.1447434 -0.06517715 0.49435747
0.15214017 -0.065662444 0.49770832
0.11979216 -0.050577182 0.49900001
0.12583138 -0.054579504 0.49754596
0.13503903 -0.054901998 0.49530333
0.14488287 -0.055053152 0.495143
0.15172118 -0.05529739 0.49806058
0.11979216 -0.047747713 0.49900004
0.12544985 -0.045391701 0.49721548
0.1348512 -0.045121927 0.4958787
0.14424449 -0.045173235 0.49755606
0.15051252 -0.049768761 0.49900001
0.12868489 -0.036429815 0.49900004
0.13543196 -0.035761219 0.49798062
0.1449088 -0.034818038 0.49707106
0.15259662 -0.033584863 0.49828845
0.12679321 -0.024543101 0.49892971
0.13449967 -0.022060025 0.49888474
0.14481714 -0.025131416 0.49800065
0.15156625 -0.026849192 0.49857146
0.11597001 -0.011015408 0.49893531
0.12572649 -0.014617343 0.4980821
0.13501535 -0.014906154 0.49609593
0.14405261 -0.015246647 0.49742079
0.11496571 -0.19268073 0.50434881
0.16329083 -0.1907914 0.50100005
0.10982332 -0.18270558 0.509
0.11325175 -0.18447563 0.50426435
0.14615093 -0.18059148 0.50397146
0.15508072 -0.18131971 0.50391328
0.16253641 -0.18372941 0.50403231
0.11616772 -0.17885172 0.50533861
0.12485286 -0.17826766 0.5045557
0.13518719 -0.17632145 0.50585854
0.14379606 -0.17464907 0.50592011
0.15489273 -0.17068867 0.50781816
0.16063428 -0.17000161 0.50800002
0.10954844 -0.16126543 0.509
0.11505201 -0.16227774 0.50619155
0.1249921 -0.16494904 0.5048036
0.1357981 -0.16891582 0.50107408
0.14304373 -0.16925797 0.5023334
0.15765238 -0.16906705 0.50766671
0.16466112 -0.1644007 0.50527042
0.10802027 -0.15451093 0.50573927
0.11314776 -0.15739369 0.50190699
0.16769321 -0.157407 0.50290912
0.17083424 -0.15813607 0.5073334
0.10757703 -0.14532107 0.50410014
0.17209181 -0.14388132 0.50300002
0.1081175 -0.13489138 0.50523728
0.16856667 -0.1376276 0.50100005
0.10694954 -0.12549028 0.50316674
0.16983911 -0.1209664 0.50600004
0.17089868 -0.12059357 0.50720006
0.10791898 -0.11442602 0.50491434
0.11048811 -0.11160827 0.50080007
0.16760276 -0.11339992 0.50312501
0.17125838 -0.11879741 0.509
0.1083174 -0.10524236 0.50718302
0.11191789 -0.10448053 0.50212502
0.16716729 -0.10517977 0.50333345
0.17002141 -0.10395423 0.509
0.10821343 -0.094802439 0.5054698
0.11284519 -0.094782993 0.50123328
0.16490604 -0.094331823 0.50390911
0.10832772 -0.086191669 0.50611931
0.11470373 -0.084792584 0.5027203
0.12057489 -0.083986558 0.50057143
0.15931 -0.086249702 0.5001111
0.16234343 -0.085473776 0.50265723
0.10920309 -0.073497802 0.50879991
0.11357711 -0.075419962 0.50392866
0.15818122 -0.070483297 0.50066674
0.16281407 -0.074627906 0.50454843
0.1086676 -0.065875635 0.50836843
0.11390635 -0.064630874 0.50324821
0.12111229 -0.060939062 0.5
0.15707126 -0.064781792 0.50251466
0.16133599 -0.065296523 0.5061428
0.10933936 -0.058973163 0.50866669
0.11527445 -0.055379499 0.50418508
0.12112877 -0.056374773 0.50022858
0.15655152 -0.054800354 0.50260252
0.16122903 -0.054917533 0.50656015
0.11654703 -0.045106251 0.50448793
0.12230624 -0.041690018 0.50064528
0.14883153 -0.044210382 0.50014287
0.15448017 -0.045208942 0.50479805
0.16053815 -0.049529195 0.509
0.11722505 -0.03522414 0.5063132
0.12475381 -0.034818865 0.50147402
0.13240391 -0.031495295 0.5
0.15684602 -0.035501223 0.50194913
0.16137916 -0.034434348 0.50495654
0.11586153 -0.024862425 0.50499308
0.12242668 -0.025933463 0.50073606
0.1352379 -0.026829427 0.5001505
0.14063065 -0.026608754 0.5
0.15588152 -0.024568042 0.50297803
0.16111541 -0.025963973 0.50647837
0.11625611 -0.016127652 0.50094098
0.12100127 -0.016930657 0.50010008
0.14890805 -0.015454113 0.50040001
0.15442105 -0.014698087 0.50438303
0.11218479 -0.20020257 0.51800001
0.10966533 -0.19072501 0.51733339
0.11232895 -0.19471461 0.51484603
0.16889037 -0.19460984 0.51400006
0.17128491 -0.19364534 0.5160625
0.10677114 -0.18374373 0.51552427
0.11094227 -0.18621829 0.51170594
0.14728743 -0.18072623 0.51275003
0.1544861 -0.18175881 0.51542604
0.16597033 -0.18400329 0.51442623
0.09936846 -0.17326233 0.51900005
0.10488334 -0.17497981 0.51549649
0.11465667 -0.17515956 0.51456237
0.1250456 -0.17558646 0.51450604
0.1331784 -0.17639047 0.51199985
0.14505287 -0.17793824 0.51331913
0.15494031 -0.17470196 0.51448566
0.16471808 -0.17282419 0.5153572
0.17216343 -0.1723552 0.51792318
0.10541975 -0.1655757 0.51533604
0.11442778 -0.16739859 0.51266122
0.12369706 -0.16878949 0.51273686
0.16766225 -0.16774216 0.51114297
0.17308955 -0.16587897 0.51497447
0.10477062 -0.15518287 0.51445061
0.17405704 -0.15723878 0.51326674
0.10550197 -0.14592177 0.51500005
0.10686585 -0.13519004 0.51450002
0.17304848 -0.13490097 0.51480007
0.10528821 -0.12357148 0.51526088
0.10458253 -0.11463918 0.51476538
0.17211704 -0.11620734 0.51179999
0.10329369 -0.10471246 0.51374161
0.1720489 -0.10434514 0.51471436
0.1049485 -0.095647849 0.51437163
0.16908716 -0.094238639 0.51420003
0.17018089 -0.090930395 0.51700008
0.10630185 -0.083482444 0.51452929
0.11003908 -0.080610566 0.51000005
0.16767295 -0.085638851 0.51344454
0.17036898 -0.086836971 0.51757145
0.10659384 -0.075203672 0.51320469
0.11003908 -0.078958087 0.51000011
0.16715842 -0.073631421 0.51421058
0.10578232 -0.064561583 0.51348776
0.16608158 -0.064000949 0.51466674
0.10771185 -0.055813819 0.51532477
0.11108156 -0.052615292 0.51179308
0.16601717 -0.055310842 0.51440489
0.10941505 -0.048976697 0.51800007
0.11212815 -0.045196693 0.5143472
0.15988243 -0.04515864 0.51085722
0.16347143 -0.045002207 0.51497912
0.1085248 -0.031833917 0.51706254
0.11246188 -0.034882538 0.51317769
0.16533355 -0.035367727 0.5133462
0.10665496 -0.027771089 0.5150435
0.11160859 -0.028073398 0.51095003
0.16483857 -0.024345888 0.51339024
0.15961419 -0.017403079 0.51000005
0.16358499 -0.015467346 0.51424074
0.10040238 -0.17822962 0.5200001
0.10139666 -0.16347963 0.52187514
0.17580189 -0.13231649 0.52000004
0.10128054 -0.11568254 0.52340811
0.098581374 -0.10536059 0.52518165
0.10042857 -0.10413581 0.52233338
0.17630816 -0.10782014 0.52275002
0.10259971 -0.096142024 0.52381241
0.10406848 -0.083540767 0.52530551
0.10344966 -0.074674278 0.52587485
0.10251618 -0.064899638 0.52438879
0.16926546 -0.066687554 0.520625
0.10474086 -0.054720167 0.52433759
0.16893332 -0.052278921 0.52133334
0.17245676 -0.054961115 0.52573532
0.10800757 -0.045568697 0.52561122
0.11062498 -0.042963762 0.52147061
0.16809978 -0.045426834 0.523
0.17122526 -0.042452604 0.52772731
0.10590415 -0.035046753 0.52448571
0.11063933 -0.037586004 0.52060002
0.16930673 -0.036117941 0.52075005
0.17133811 -0.039754648 0.52700001
0.1030603 -0.029010236 0.52110004
0.1692531 -0.024413966 0.5211429
0.17186666 -0.021996025 0.52600002
0.16804062 -0.015239006 0.52074999
