# .PCD v0.7 - Point Cloud Data file format
VERSION 0.7
FIELDS x y z
SIZE 4 4 4
TYPE F F F
COUNT 1 1 1
WIDTH 82
HEIGHT 1
VIEWPOINT 0 0 0 1 0 0 0
POINTS 82
DATA ascii
0.019660927 -0.0020213721 0.27899995
0.025204521 -0.0035046916 0.27735385
0.035222795 -0.0042956835 0.27725628
0.04451688 -0.0043025599 0.27752948
0.052427221 -0.0019805755 0.27836066
0.019048307 0.0042603537 0.27862871
0.025093593 0.0050313105 0.27531835
0.03495172 0.0050995084 0.27387518
0.044801917 0.0049856608 0.27469561
0.053128351 0.0048449067 0.27776429
0.017461056 0.017465718 0.27855298
0.025001382 0.015080031 0.27621099
0.034983825 0.015102799 0.2746512
0.04498852 0.015070622 0.27532065
0.052473634 0.014281587 0.27799034
0.017606344 0.022177014 0.27854386
0.025096444 0.02489966 0.27767181
0.034947265 0.02479122 0.27802482
0.044694364 0.024747716 0.27762794
0.050951861 0.022172801 0.27887237
0.026180997 0.030694846 0.27899995
0.031075604 0.030514022 0.27900004
0.043191042 0.030368743 0.27899995
0.029346725 -0.020396326 0.289
0.036143437 -0.021816952 0.28814608
0.043210782 -0.021173928 0.28701326
0.05065025 -0.020396326 0.289
0.01637123 -0.011813481 0.28753486
0.025578856 -0.014272742 0.28578886
0.034982897 -0.014977881 0.28351223
0.044798516 -0.014847758 0.28320795
0.053473108 -0.013919767 0.286369
0.060365587 -0.010564052 0.289
0.008038559 -0.0035712451 0.28737402
0.014927748 -0.0050652637 0.28299737
0.024490634 -0.0084672794 0.28113598
0.033494789 -0.0090655684 0.28029338
0.047144722 -0.0087096365 0.28009596
0.055539131 -0.005871837 0.28227046
0.062438633 -0.0042106588 0.28658211
0.0067422241 0.0051670368 0.2858938
0.014130791 0.0051435749 0.28114581
0.058087844 0.0050685303 0.28091547
0.063151017 0.0049356362 0.28570783
0.0068909856 0.014613576 0.28625003
0.014104343 0.01401772 0.28086451
0.020267501 0.012446078 0.28
0.057241593 0.015504581 0.28169623
0.062414099 0.014552729 0.28672761
0.00785283 0.024040302 0.28705737
0.014236244 0.025839932 0.28193036
0.020343108 0.029078914 0.28
0.036144495 0.029275486 0.28000006
0.049263906 0.028895874 0.28000003
0.055246383 0.025303302 0.28263521
0.061170772 0.024378136 0.28816652
0.01748641 -0.020916807 0.29361549
0.025184255 -0.021767918 0.29182884
0.032172423 -0.022917295 0.2902143
0.051753458 -0.020932125 0.29070586
0.0077866265 -0.013066384 0.29403141
0.0146511 -0.016000401 0.29230571
0.022829574 -0.018483475 0.29077643
0.056361701 -0.016202535 0.29043639
0.062577628 -0.012388723 0.29259038
-0.00039520909 -0.00099261408 0.29700002
0.0050455183 -0.0053528235 0.29132411
0.066056319 -0.0053896094 0.2912429
-0.0013822974 0.0062029781 0.29643866
0.0018205518 0.0046860799 0.29180804
0.068244614 0.006054664 0.29114598
0.070338868 0.0070903804 0.29300001
-0.010266186 0.017509783 0.29766667
-0.005153812 0.01672194 0.29634568
0.0021468399 0.015472199 0.29119316
0.067380808 0.015263347 0.29189166
0.070377275 0.014529463 0.29340008
-0.010207178 0.020435598 0.29900002
-0.0041728881 0.020959286 0.29743943
0.0045994725 0.025205335 0.29135424
0.065685578 0.024658112 0.29236183
0.07034108 0.021237541 0.29500005
