# .PCD v0.7 - Point Cloud Data file format
VERSION 0.7
FIELDS x y z
SIZE 4 4 4
TYPE F F F
COUNT 1 1 1
WIDTH 144
HEIGHT 1
VIEWPOINT 0 0 0 1 0 0 0
POINTS 144
DATA ascii
0.59662312 0.23730387 -0.034347296
0.60591644 0.23421535 -0.038401529
0.59472853 0.24732144 -0.03687527
0.59392363 0.26240844 -0.037184734
0.59132427 0.23532476 -0.021888426
0.60653639 0.23339762 -0.02308755
0.6211282 0.23401581 -0.022972513
0.58845359 0.24771474 -0.02274802
0.58333325 0.26363313 -0.016920328
0.58795691 0.26190811 -0.023474248
0.5838334 0.27174181 -0.016075598
0.59002936 0.27655286 -0.023105664
0.58351642 0.23711792 -0.0061552073
0.58996439 0.23243213 -0.0079798168
0.6062113 0.23098923 -0.0079378663
0.62073684 0.2320859 -0.0081464248
0.58075154 0.24737068 -0.0058459379
0.58615029 0.24900077 -0.013035581
0.57895029 0.26207596 -0.0077333893
0.58599997 0.25588652 -0.014874547
0.58041036 0.27489367 -0.0072781346
0.58568752 0.27931952 -0.013981452
0.57845628 0.23400517 0.0077934298
0.59124994 0.22874811 0.0068878653
0.60697103 0.22921941 0.0079754554
0.62236845 0.23109309 0.0063697323
0.57345194 0.24730004 0.0075918878
0.5670929 0.26587024 0.011503055
0.57280195 0.26123759 0.0060960166
0.56677777 0.27223745 0.010959436
0.5731321 0.27600908 0.0049805939
0.58299994 0.28703332 0.0077765696
0.5674364 0.23534925 0.025562784
0.57465744 0.23078661 0.021311643
0.59071243 0.22759531 0.022110829
0.60718042 0.2288719 0.022133691
0.62401605 0.23077278 0.022628076
0.56782126 0.24831693 0.023910612
0.57028288 0.24476786 0.0171718
0.56366014 0.2630752 0.023100914
0.56999999 0.25809783 0.016799657
0.56042856 0.27107063 0.023722168
0.56720585 0.22414917 0.040964391
0.57714468 0.22400615 0.038978089
0.58787501 0.22480603 0.040099304
0.56405634 0.232618 0.037792701
0.57455879 0.22624905 0.031789105
0.5937407 0.22615027 0.036060236
0.60828567 0.22859333 0.038506161
0.62288415 0.2307746 0.037545983
0.56064147 0.24759369 0.037516911
0.55373651 0.26371476 0.043196451
0.55734092 0.26150426 0.035723839
0.55389285 0.2745859 0.044060193
0.55577493 0.27330288 0.038467992
0.56652945 0.22380918 0.050034419
0.57713783 0.22372894 0.050217714
0.58769995 0.22457342 0.050028902
0.55400002 0.23833732 0.059232138
0.56029016 0.23212858 0.052648488
0.57714999 0.22612004 0.057839014
0.59336573 0.22647138 0.053556386
0.60784853 0.22799651 0.052621558
0.6188103 0.22797698 0.052283242
0.55310035 0.250539 0.055295013
0.55631959 0.24552393 0.050304636
0.55214518 0.26214391 0.052704394
0.55290407 0.27285945 0.051334828
0.55388886 0.23853748 0.062000632
0.56015831 0.23459156 0.064633086
0.57704955 0.23378329 0.067522205
0.59219831 0.23293889 0.069125682
0.60790908 0.23097609 0.068810567
0.61859328 0.22964473 0.0676203
0.55242801 0.24751192 0.063903823
0.56044912 0.247447 0.071295314
0.57300001 0.24188311 0.074001707
0.55194056 0.26231119 0.065021254
0.55791235 0.26195809 0.072436742
0.55314279 0.27144119 0.06516736
0.55763447 0.27409548 0.071874633
0.59460646 0.2369002 0.077556454
0.60817176 0.23393765 0.08103177
0.56739998 0.25014204 0.075739451
0.57800001 0.24861367 0.079028197
0.59105378 0.24652462 0.084530346
0.60465801 0.24219824 0.087319911
0.56573015 0.26321086 0.077092282
0.57817453 0.26212862 0.083492085
0.58658624 0.25982705 0.088530973
0.56453699 0.27464786 0.077974334
0.57709301 0.27473941 0.084871262
0.58579999 0.27356791 0.089001678
0.59283328 0.25082582 0.09144035
0.60869235 0.24416599 0.092273518
0.59021217 0.26045689 0.091906674
0.58908498 0.27498391 0.091943711
0.53647995 -0.062747233 -0.092142694
0.53323692 -0.051335189 -0.094841935
0.53869236 -0.075839117 -0.078056745
0.54520553 -0.078821816 -0.081767626
0.53352195 -0.06652724 -0.081623703
0.54221737 -0.072780631 -0.087136321
0.52363503 -0.047872029 -0.079396322
0.52660716 -0.053949729 -0.083184712
0.52360743 -0.040399451 -0.078094982
0.52643865 -0.036090463 -0.083853982
0.53200334 -0.022440154 -0.082340151
0.54100001 -0.015623602 -0.088798247
0.536421 -0.013691639 -0.079530112
0.54656255 -0.010925507 -0.082359195
0.53625584 -0.077817626 -0.068698458
0.54115379 -0.082499862 -0.073042527
0.52400011 -0.061047841 -0.063434899
0.52954799 -0.067878045 -0.067705646
0.52281338 -0.051769748 -0.066962086
0.5254209 -0.055584375 -0.070627555
0.52348268 -0.040204804 -0.071098782
0.52557635 -0.035539933 -0.065486774
0.53128302 -0.022325804 -0.067278594
0.53999996 -0.015159833 -0.061189853
0.53662795 -0.013129538 -0.069106936
0.54231036 -0.010450755 -0.067607097
0.53486103 -0.076390058 -0.056426514
0.54380769 -0.0765232 -0.049126592
0.52399999 -0.060540497 -0.05878501
0.53155899 -0.066742688 -0.05361066
0.54194653 -0.071203314 -0.047589608
0.523763 -0.052602366 -0.058282055
0.52807266 -0.052434448 -0.050881065
0.52399999 -0.044305567 -0.057685945
0.52956283 -0.037532713 -0.052534904
0.53999996 -0.03128051 -0.045507409
0.53514981 -0.02422034 -0.054978397
0.5443179 -0.021069463 -0.048675273
0.54660708 -0.013740573 -0.05469545
0.54699999 -0.075378835 -0.044332236
0.53736818 -0.063246049 -0.038795196
0.54275715 -0.06947156 -0.04147711
0.53713167 -0.055608708 -0.041286461
0.54329377 -0.050708458 -0.039160222
0.53735119 -0.039384861 -0.043981869
0.54243791 -0.037281509 -0.040714201
0.5496667 -0.024053225 -0.041656002
