# .PCD v0.7 - Point Cloud Data file format
VERSION 0.7
FIELDS x y z
SIZE 4 4 4
TYPE F F F
COUNT 1 1 1
WIDTH 273
HEIGHT 1
VIEWPOINT 0 0 0 1 0 0 0
POINTS 273
DATA ascii
0.41193876 -0.10639039 -0.10980862
0.40221947 -0.091536917 -0.10849085
0.40946242 -0.098010287 -0.1120854
0.40093762 -0.081682079 -0.10990154
0.4068462 -0.083608985 -0.11737554
0.40163648 -0.06839142 -0.10866569
0.40827912 -0.066594638 -0.11574413
0.40399998 -0.05904115 -0.10650711
0.41044864 -0.055362187 -0.11085123
0.41066062 -0.10824858 -0.095871843
0.40144414 -0.096430659 -0.095584713
0.40610006 -0.10245354 -0.099317916
0.39675301 -0.082261547 -0.097331099
0.39903748 -0.067436315 -0.097524479
0.40277767 -0.057924062 -0.096105248
0.40920028 -0.05121142 -0.097333975
0.41681245 -0.043648459 -0.091235876
0.42080003 -0.042641856 -0.092288636
0.40868458 -0.10766836 -0.082900442
0.40149876 -0.095525764 -0.083059534
0.40660647 -0.10266808 -0.080371328
0.39787722 -0.082348533 -0.082692556
0.39898795 -0.067554817 -0.082497895
0.40557149 -0.061466973 -0.076165766
0.40272501 -0.057632461 -0.085615836
0.41073883 -0.052031841 -0.082472727
0.42447057 -0.046572343 -0.078341529
0.41797295 -0.043615542 -0.087576538
0.42622775 -0.042944968 -0.079991952
0.41054526 -0.10718594 -0.071550034
0.40327254 -0.092514738 -0.0721808
0.40817484 -0.097904511 -0.067171067
0.40256003 -0.081812225 -0.068549611
0.40529102 -0.087612785 -0.064489603
0.40285429 -0.071372904 -0.070957318
0.40837559 -0.065501057 -0.067516036
0.41289821 -0.055889413 -0.070397891
0.42717111 -0.05010679 -0.068307541
0.4294 -0.043165639 -0.073113859
0.389 -0.090013668 -0.045962211
0.39472619 -0.094143935 -0.04998086
0.40674186 -0.094524458 -0.058485061
0.38567808 -0.080725215 -0.048804361
0.39569819 -0.084063172 -0.055557702
0.38588282 -0.069350153 -0.04879377
0.39444935 -0.066718772 -0.054584391
0.40770006 -0.062065881 -0.058927406
0.39593688 -0.055948585 -0.048456926
0.41266665 -0.058864355 -0.059411414
0.46311107 0.22406231 -0.045877445
0.4722054 0.22333235 -0.052367389
0.48716128 0.22259751 -0.052318152
0.46206164 0.23207371 -0.051893961
0.46622205 0.22711779 -0.055455644
0.39703178 -0.10629424 -0.035563424
0.38428736 -0.093746506 -0.035026621
0.39446461 -0.10046218 -0.039105866
0.38041857 -0.082126185 -0.03739598
0.38198861 -0.067287341 -0.037220202
0.38757452 -0.057615157 -0.034921844
0.39555147 -0.053200696 -0.039228819
0.405 -0.047641397 -0.040664904
0.56741661 0.043357 -0.031874016
0.46033117 0.22363982 -0.036852963
0.47143066 0.22236928 -0.037329506
0.48738274 0.22172362 -0.037404697
0.50049454 0.21924879 -0.037684429
0.51679623 0.21810681 -0.037241697
0.44899991 0.22964796 -0.031254828
0.45485976 0.22866161 -0.038112868
0.38900003 -0.10507901 -0.027447414
0.39526135 -0.10722929 -0.021036113
0.38347128 -0.096130595 -0.022841807
0.39165953 -0.10352542 -0.019564604
0.37841058 -0.082250945 -0.02240588
0.38112736 -0.067461886 -0.02247302
0.38660604 -0.057066653 -0.023963401
0.39780387 -0.05145127 -0.021032529
0.40571433 -0.046789777 -0.023344599
0.58161479 0.027310489 -0.022749305
0.5909999 0.022652293 -0.023793465
0.56393957 0.039742943 -0.020853208
0.5744369 0.033578597 -0.024683971
0.56249821 0.052548952 -0.022571525
0.56234372 0.067592226 -0.022361791
0.56470561 0.07789173 -0.022544324
0.57652557 0.084957384 -0.022939347
0.44761536 0.22412606 -0.016195711
0.45719388 0.22270884 -0.021811098
0.47212338 0.21990846 -0.02250953
0.48640919 0.21812417 -0.023060065
0.50263166 0.21791466 -0.022042904
0.51585698 0.21628357 -0.023271896
0.52952212 0.21515352 -0.02211708
0.54591668 0.21877943 -0.026347391
0.44718191 0.22777742 -0.021902727
0.45131522 0.22610246 -0.025861928
0.39426669 -0.10586535 -0.012552094
0.38624603 -0.094656602 -0.012326521
0.39572594 -0.097480714 -0.0062209596
0.38427052 -0.082629301 -0.012061364
0.39856547 -0.082735315 -0.0051065669
0.40516672 -0.083620407 -0.00087091204
0.38629597 -0.067926347 -0.012208502
0.39639091 -0.067017563 -0.0050283764
0.38899997 -0.059464533 -0.014058181
0.39689681 -0.056112621 -0.0097508803
0.40810007 -0.052380215 -0.0082986131
0.56611866 0.027474638 -0.0042332606
0.57624602 0.025941173 -0.010953317
0.58779997 0.023238214 -0.01340232
0.60499996 0.021578325 -0.013892637
0.56040055 0.037608705 -0.0074446998
0.57099998 0.030040484 -0.014493789
0.55741584 0.052627698 -0.0073399195
0.55892599 0.06765572 -0.0074987747
0.56442726 0.079282165 -0.0074151191
0.57688469 0.086572029 -0.009047634
0.59399998 0.092116967 -0.0073767519
0.60999995 0.09656693 -0.0012130382
0.62073922 0.10047168 -0.0039540944
0.44374201 0.22182228 -0.0065853973
0.4568941 0.21937008 -0.0078052552
0.47173208 0.21745443 -0.0074812802
0.48666042 0.21603836 -0.0081630899
0.50233138 0.21546067 -0.0076701287
0.51809669 0.2153538 -0.007256249
0.52715909 0.21405487 -0.0081565408
0.44148278 0.2260406 -0.0099800685
0.40320691 -0.094193868 0.00069080258
0.40537044 -0.091402195 0.0024040896
0.40400001 -0.078881457 0.00017434923
0.40675095 -0.082445197 0.0028103907
0.4032841 -0.066574275 0.0015651474
0.40593877 -0.072637968 0.0033450285
0.40200001 -0.059938144 0.0014706748
0.56667733 0.025752809 0.0078299595
0.57017636 0.020931305 0.0074970503
0.56131786 0.037675325 0.0074856174
0.55734301 0.052697293 0.0074323644
0.55399996 0.069822177 0.01230584
0.55634803 0.067502722 0.007253774
0.55399996 0.076437622 0.011680156
0.55872405 0.077634491 0.0046901726
0.59699994 0.092582211 0.00073923648
0.51528573 0.20875062 0.011619327
0.43382609 0.2220504 0.011386096
0.44117081 0.21989237 0.0070099309
0.45696959 0.21742614 0.0077373665
0.47214231 0.21642484 0.0068955277
0.48724887 0.21483427 0.008067512
0.50192028 0.21320856 0.0074846586
0.51509643 0.21248417 0.0055267825
0.52522224 0.21211353 0.0013560435
0.43799999 0.22518595 0.00018900861
0.55288637 0.026529511 0.028012618
0.55879337 0.024271047 0.021405637
0.55165523 0.037431836 0.026262404
0.55765676 0.037509788 0.018987203
0.55059272 0.053914387 0.024365654
0.55689454 0.049812008 0.018699046
0.55175847 0.066002019 0.023899548
0.55589473 0.071113318 0.01901404
0.55399996 0.076527022 0.028394856
0.55671424 0.076901853 0.021823792
0.5046531 0.20895877 0.024554923
0.51068759 0.20888734 0.016904145
0.43138272 0.21899781 0.023467194
0.44091633 0.21680185 0.022344071
0.45713916 0.21717645 0.022181572
0.47241077 0.21605229 0.022787083
0.48641968 0.21318309 0.022452611
0.50146979 0.21194527 0.021307092
0.50999999 0.21076673 0.015031273
0.5518446 0.025391802 0.037219841
0.55519992 0.020967206 0.037685126
0.54638112 0.037593342 0.037640877
0.5444209 0.052323002 0.037508067
0.54943359 0.067487709 0.037463937
0.55238104 0.076643012 0.038084567
0.55499995 0.078456342 0.032475632
0.49836195 0.20850661 0.037064735
0.42849255 0.21549509 0.037422135
0.44151258 0.212852 0.037564002
0.45707181 0.2129166 0.037821863
0.47234815 0.21355325 0.036960702
0.48746926 0.21245858 0.037648648
0.49612254 0.21098535 0.035626441
0.53789997 0.027688984 0.056867894
0.54687268 0.027337316 0.049283754
0.55539989 0.022945452 0.046836752
0.53386056 0.037918448 0.053673707
0.54171658 0.035339903 0.047220223
0.53494471 0.051530089 0.053966638
0.54130781 0.055037901 0.047661595
0.53849995 0.06091693 0.058877766
0.54596835 0.067701966 0.05239841
0.54950005 0.07653895 0.049439624
0.49155858 0.20809622 0.053544201
0.49556243 0.20764805 0.046137527
0.43083489 0.21799666 0.048082206
0.44191438 0.21669318 0.052448165
0.4564245 0.21275847 0.053028788
0.47235069 0.21179731 0.052810263
0.48601252 0.21127781 0.051713828
0.44409999 0.22673993 0.058091868
0.53731751 0.026317179 0.068065889
0.54045236 0.01991272 0.067248479
0.52399999 0.044479184 0.07420142
0.53170645 0.037755322 0.06771113
0.52251148 0.052314896 0.072900005
0.52964497 0.052327566 0.065936387
0.53417492 0.066504084 0.068446942
0.54138988 0.070300259 0.062338345
0.5384286 0.075244904 0.070596591
0.54141665 0.07580772 0.064507715
0.49172008 0.20862022 0.06573014
0.44860002 0.22339571 0.060267329
0.45876646 0.21833788 0.063527584
0.4718422 0.21558091 0.068485655
0.48597151 0.21146439 0.068584934
0.44712502 0.22735131 0.060069166
0.45839477 0.23021321 0.065168396
0.47078928 0.23266099 0.071786948
0.47304341 0.24170569 0.073013917
0.53542751 0.023679962 0.082386918
0.53999996 0.017843988 0.075922593
0.52071536 0.039988995 0.082405955
0.5279482 0.033682767 0.080731407
0.52167434 0.052474253 0.082093365
0.52499986 0.055170797 0.085134387
0.52327031 0.064886004 0.088848762
0.53035837 0.067646377 0.081890613
0.53837496 0.075237423 0.078840151
0.4765192 0.21904559 0.077333152
0.48299998 0.21226846 0.076690853
0.47738099 0.22811949 0.076935641
0.48276535 0.23410246 0.079249434
0.47900006 0.24433258 0.076330252
0.4844524 0.24399683 0.080157526
0.53746146 0.02449926 0.091716826
0.54451066 0.024138644 0.098870285
0.53223306 0.037862286 0.093970731
0.54278094 0.036677781 0.10149095
0.52303421 0.056736141 0.094586305
0.52928275 0.050607406 0.09645427
0.54328561 0.047930591 0.1027616
0.52260393 0.065992557 0.096024677
0.5210768 0.026875054 0.11758363
0.53335714 0.027240917 0.11417991
0.54949975 0.0254678 0.10900541
0.51976675 0.037143651 0.1161895
0.53211659 0.037785292 0.11313425
0.54619974 0.037641756 0.10914745
0.5229091 0.046420414 0.11772484
0.52953571 0.052674185 0.11480048
0.54618299 0.048765589 0.10974229
0.52699995 0.060041215 0.11799012
0.52259028 0.026748886 0.12413137
0.52605575 0.023992201 0.13062799
0.50555539 0.040624246 0.13228799
0.5167464 0.037066132 0.12768547
0.52500004 0.030500835 0.13422912
0.5049305 0.048904914 0.13127092
0.51703769 0.052269261 0.12601297
0.52521032 0.053392261 0.12131302
0.51505888 0.061346181 0.12496452
0.52312201 0.026840756 0.1379012
0.52542865 0.024432313 0.13604578
0.50266665 0.041178364 0.13538493
0.52400005 0.030104514 0.1371861
0.52499998 0.030585553 0.1357538
0.50199997 0.045041945 0.13547607
