# .PCD v0.7 - Point Cloud Data file format
VERSION 0.7
FIELDS x y z
SIZE 4 4 4
TYPE F F F
COUNT 1 1 1
WIDTH 1165
HEIGHT 1
VIEWPOINT 0 0 0 1 0 0 0
POINTS 1165
DATA ascii
0.41138688 -0.21142718 -0.1507829
0.40076765 -0.20159262 -0.15457261
0.40980601 -0.20447592 -0.1513788
0.39916512 -0.18721195 -0.15291701
0.40669435 -0.18313809 -0.15059547
0.39821082 -0.17278396 -0.15265805
0.40544441 -0.17763689 -0.15049779
0.39501709 -0.15789503 -0.15210184
0.40676475 -0.15983832 -0.15045966
0.38900003 -0.14399776 -0.15297148
0.39376551 -0.14262795 -0.15191439
0.389 -0.12171364 -0.15297146
0.39297307 -0.12782623 -0.15199918
0.38851476 -0.11036322 -0.15184903
0.39121249 -0.11572498 -0.15125877
0.38658056 -0.097415365 -0.15083189
0.38492438 -0.08373028 -0.15057559
0.3839435 -0.068756588 -0.15045488
0.38349998 -0.058314767 -0.15018746
0.382 -0.042161923 -0.15021876
0.44342184 -0.22750987 -0.13889697
0.45852232 -0.23166275 -0.13639255
0.41661119 -0.2130295 -0.14851423
0.42713994 -0.21526374 -0.14476234
0.44160953 -0.21761431 -0.1392847
0.45396075 -0.22080518 -0.13641836
0.41725942 -0.20222393 -0.14891441
0.42597979 -0.20250969 -0.14424509
0.44035605 -0.20245858 -0.13801105
0.40399998 -0.19029582 -0.1494187
0.41282538 -0.18584985 -0.14893287
0.42670178 -0.1874252 -0.14380321
0.43906623 -0.18906283 -0.13752706
0.40328214 -0.16887514 -0.1495267
0.41253901 -0.17178366 -0.14688176
0.42693964 -0.17272837 -0.14044513
0.43652508 -0.17448068 -0.13590552
0.40098152 -0.15527616 -0.14943062
0.4121677 -0.15810204 -0.14601225
0.42631981 -0.15719976 -0.13915189
0.435 -0.16067481 -0.13526691
0.40090477 -0.14236352 -0.14812677
0.41092387 -0.14227398 -0.14451301
0.42586556 -0.14276433 -0.13881308
0.39896423 -0.12770811 -0.14780794
0.41169944 -0.12721403 -0.14381357
0.42660049 -0.12762281 -0.13834502
0.435 -0.13084188 -0.13526691
0.389 -0.10602059 -0.14983337
0.39673412 -0.11177026 -0.14739734
0.41355559 -0.11258587 -0.14232934
0.42601785 -0.1132403 -0.13693862
0.38858214 -0.096570566 -0.14919446
0.39712316 -0.097260036 -0.14546685
0.4138903 -0.098675005 -0.14002594
0.42184904 -0.098825574 -0.13657886
0.38708189 -0.082058534 -0.14917086
0.3968572 -0.082442597 -0.14498836
0.41096357 -0.082229525 -0.13828483
0.42045459 -0.087609366 -0.13567729
0.38690972 -0.066492133 -0.14863677
0.39524651 -0.067542195 -0.14380699
0.41174147 -0.068016559 -0.13805255
0.38587636 -0.052195661 -0.14732696
0.39707878 -0.052610934 -0.14132296
0.40770552 -0.053217396 -0.13646401
0.38499308 -0.037283834 -0.14760019
0.39782795 -0.037486725 -0.14151151
0.40759706 -0.038264748 -0.13631639
0.38350818 -0.022161692 -0.14550591
0.39768252 -0.022572974 -0.13952547
0.40756771 -0.022864006 -0.13599458
0.37400004 -0.0047661834 -0.14707282
0.38218364 -0.0077138785 -0.14480238
0.39641431 -0.0072008655 -0.13851842
0.40560871 -0.012468696 -0.13531674
0.38283464 0.0078682592 -0.14400396
0.39610872 0.0069129467 -0.13753043
0.37315792 0.025825405 -0.14555176
0.3821958 0.022523541 -0.14277935
0.39365134 0.021607922 -0.13749035
0.3721292 0.037875734 -0.14471427
0.38117388 0.037409894 -0.14034225
0.3921172 0.036807846 -0.13622405
0.37184218 0.052727163 -0.14368086
0.38274041 0.052245382 -0.13926204
0.39394817 0.052728921 -0.13593699
0.37040389 0.067626849 -0.14241752
0.38105661 0.06690865 -0.13773569
0.38999999 0.060480833 -0.13511692
0.36950013 0.082378119 -0.14180762
0.37874016 0.082311049 -0.13749899
0.36835551 0.097619124 -0.14052303
0.37711394 0.096696213 -0.13669819
0.36758178 0.11267737 -0.13984852
0.37673715 0.1115111 -0.13626774
0.35900006 0.13272181 -0.14088456
0.36776099 0.12744968 -0.1392455
0.37622207 0.12685402 -0.1359265
0.358794 0.14412057 -0.14049718
0.36665025 0.14213136 -0.13800362
0.37600008 0.1377746 -0.13581476
0.35778838 0.15810674 -0.13981339
0.36675557 0.15719616 -0.13749819
0.35721016 0.17287546 -0.13872437
0.36366493 0.17149732 -0.13647032
0.3574211 0.18196717 -0.13839498
0.36483335 0.18474467 -0.13624758
0.4719412 -0.24179238 -0.12713613
0.48319355 -0.24529865 -0.12209759
0.46291503 -0.23179218 -0.13311559
0.47051007 -0.23284942 -0.12692533
0.48300856 -0.23231439 -0.12174633
0.44800001 -0.21186456 -0.13485175
0.45775104 -0.21608515 -0.13042274
0.47188833 -0.21777488 -0.12475469
0.48327741 -0.21711344 -0.12144249
0.44802475 -0.20227148 -0.13389823
0.45688906 -0.20269322 -0.12916043
0.47252956 -0.20348993 -0.12451626
0.48318192 -0.2035574 -0.12191424
0.44575396 -0.18590347 -0.13206513
0.45707992 -0.1884658 -0.12703513
0.47272903 -0.18618144 -0.12275142
0.4804 -0.19411115 -0.12086078
0.44330958 -0.17222098 -0.1320498
0.45551938 -0.17208353 -0.12748386
0.47094202 -0.17328681 -0.1234695
0.43399999 -0.15295188 -0.13460584
0.44109443 -0.15716365 -0.13150463
0.45724687 -0.15729427 -0.1256648
0.46838227 -0.15998027 -0.12122758
0.4325 -0.14169559 -0.13425167
0.44197437 -0.14275207 -0.13096528
0.45642519 -0.14312784 -0.12399585
0.465 -0.14886978 -0.12058798
0.43400002 -0.12594222 -0.13453582
0.44055352 -0.12759601 -0.12929919
0.45470601 -0.13170613 -0.12242918
0.43141809 -0.11045342 -0.13222031
0.43776411 -0.11450359 -0.12822162
0.41608164 -0.092912115 -0.12297475
0.42531291 -0.098468482 -0.13004301
0.41441411 -0.080895916 -0.12661126
0.42075297 -0.086525716 -0.13251321
0.41676277 -0.068559632 -0.1281433
0.42160133 -0.065687552 -0.12890497
0.41517693 -0.051830996 -0.13314223
0.42566124 -0.052349214 -0.12717751
0.43681246 -0.046093397 -0.12129161
0.41412443 -0.038179692 -0.13334239
0.42737138 -0.037188366 -0.12831648
0.44084942 -0.03735555 -0.12206118
0.45474997 -0.031204268 -0.12095624
0.41449052 -0.022072682 -0.13322879
0.42711157 -0.022729542 -0.12707984
0.43707418 -0.021398691 -0.12130014
0.4522 -0.028168226 -0.12077003
0.40275869 -0.0035562767 -0.13433816
0.4138898 -0.0075401585 -0.13192855
0.42644611 -0.0072678262 -0.12530516
0.43733951 -0.0078087747 -0.12128322
0.40339682 0.0073653958 -0.13393815
0.41315952 0.0076187965 -0.1313609
0.42455363 0.0072937305 -0.12560703
0.43744346 0.0079243546 -0.12142253
0.4007439 0.024606423 -0.13357447
0.41137773 0.02212614 -0.12935802
0.42887545 0.022262454 -0.12395854
0.43610013 0.017803291 -0.12069081
0.39855427 0.036274757 -0.13304621
0.41319042 0.03856194 -0.12908439
0.425587 0.037604667 -0.12292142
0.435 0.043242071 -0.12052833
0.40012145 0.053376015 -0.13337973
0.41325602 0.052964628 -0.12737101
0.42504534 0.051402953 -0.1217727
0.435 0.046400853 -0.12052833
0.38744706 0.069103308 -0.13443559
0.39741728 0.067851827 -0.13076732
0.41159707 0.067437612 -0.12505044
0.42283192 0.06610097 -0.1213643
0.3870731 0.0835528 -0.13385753
0.39749879 0.082204804 -0.12997729
0.4116908 0.082263075 -0.12347458
0.42149997 0.078284867 -0.12052763
0.38535434 0.097566724 -0.13353226
0.39673939 0.097265519 -0.12927862
0.41122431 0.097418182 -0.12350217
0.38322374 0.11268526 -0.13370928
0.39561063 0.11291347 -0.12918176
0.41205767 0.11180636 -0.12368525
0.42050001 0.11033452 -0.12024175
0.38274699 0.12773116 -0.13286185
0.39597782 0.12774348 -0.12769787
0.41041312 0.12732454 -0.12284151
0.37304747 0.14604171 -0.13428695
0.3825945 0.14273606 -0.13144332
0.39709064 0.14199413 -0.12489161
0.40856901 0.13989753 -0.12103231
0.37287417 0.15901588 -0.13392715
0.3824054 0.15723732 -0.1303155
0.39770988 0.15775876 -0.12385581
0.405 0.15005474 -0.12038398
0.37081212 0.17342995 -0.13346532
0.38268816 0.17309912 -0.12968138
0.39643684 0.17242579 -0.12406926
0.37078786 0.18545872 -0.13232934
0.3817285 0.18742457 -0.12585354
0.3948217 0.18529591 -0.12168967
0.38478431 0.19649513 -0.12203895
0.39117384 0.19756687 -0.12048537
0.52299994 -0.27040103 -0.10651731
0.52499998 -0.27101147 -0.10565408
0.50337505 -0.25774994 -0.11366852
0.51658601 -0.26146862 -0.10872357
0.52683783 -0.26077861 -0.10576921
0.49112698 -0.24762322 -0.11819167
0.50124753 -0.24710108 -0.11346513
0.51479107 -0.24801528 -0.10902201
0.5285846 -0.24974714 -0.10630757
0.49056408 -0.23188367 -0.11792281
0.50214684 -0.23197959 -0.11270483
0.51427448 -0.231903 -0.10739889
0.48994556 -0.21857744 -0.11818232
0.50363272 -0.21758798 -0.11289553
0.51151222 -0.21885064 -0.10668158
0.48925456 -0.20182243 -0.11692498
0.50190109 -0.20227695 -0.11031589
0.51139587 -0.20141564 -0.10559647
0.47825003 -0.18591326 -0.11939437
0.48634905 -0.18675095 -0.11626671
0.50007397 -0.18704505 -0.10978714
0.51151854 -0.19115904 -0.1057828
0.47645459 -0.1712895 -0.11916753
0.48794448 -0.17200999 -0.11433591
0.49853408 -0.17363624 -0.10754029
0.47291201 -0.15554926 -0.11798241
0.48699591 -0.15752026 -0.11229033
0.4980894 -0.15804499 -0.10677562
0.4617143 -0.14065237 -0.11915872
0.4697867 -0.14301033 -0.11659187
0.48908094 -0.14584702 -0.111926
0.49716198 -0.1427045 -0.10819272
0.46038458 -0.13118641 -0.11875626
0.46824998 -0.13347614 -0.11633038
0.41193876 -0.10639039 -0.10980862
0.40221947 -0.091536917 -0.10849085
0.40946242 -0.098010287 -0.1120854
0.40093762 -0.081682079 -0.10990154
0.4068462 -0.083608985 -0.11737554
0.40163648 -0.06839142 -0.10866569
0.40827912 -0.066594638 -0.11574413
0.40399998 -0.05904115 -0.10650711
0.41044864 -0.055362187 -0.11085123
0.42715386 -0.051412437 -0.11945622
0.44742861 -0.03838091 -0.11926005
0.4568859 -0.034258522 -0.11415868
0.46687487 -0.032694239 -0.10760496
0.44475433 -0.019707305 -0.11834276
0.45674542 -0.023301948 -0.11434624
0.47076523 -0.022364009 -0.10786836
0.44418889 -0.0077653597 -0.1172436
0.45532256 -0.0064561968 -0.1113033
0.47146016 -0.0083951112 -0.10741891
0.47999999 -0.0096025746 -0.10511689
0.4444373 0.0078380834 -0.11680625
0.45685339 0.0072317165 -0.11051241
0.46882203 0.0073009855 -0.10633548
0.43312502 0.028203961 -0.11974624
0.44292298 0.022655997 -0.11659386
0.45669577 0.02239277 -0.10937237
0.46615148 0.020622972 -0.1055703
0.43312266 0.036275797 -0.11908791
0.44179428 0.037595496 -0.1143883
0.45762169 0.037808858 -0.10807446
0.46678388 0.03721993 -0.10558048
0.43222979 0.055458974 -0.11891785
0.44160792 0.05209703 -0.11415836
0.45587388 0.052686691 -0.10729919
0.47222725 0.051675137 -0.10534553
0.42939219 0.067462757 -0.11888895
0.4408102 0.068118311 -0.11380213
0.45515469 0.067111537 -0.10794237
0.41788241 0.087552764 -0.1197106
0.42713478 0.082655914 -0.11766393
0.44185212 0.082185872 -0.11251186
0.4534446 0.082835376 -0.10718348
0.41789034 0.096886672 -0.119453
0.42731091 0.097977139 -0.11613331
0.44182748 0.097693153 -0.11056583
0.45249552 0.095020294 -0.10663306
0.41704658 0.11732796 -0.11902484
0.42619631 0.11263104 -0.11486656
0.44176161 0.11199291 -0.10834715
0.44999999 0.10573032 -0.10508145
0.41670206 0.12760384 -0.11796857
0.42665437 0.12729797 -0.11274414
0.43905282 0.12702854 -0.10692842
0.41430292 0.14375 -0.11767991
0.4276244 0.14179648 -0.11182326
0.43735415 0.14258894 -0.10646954
0.40386954 0.15745735 -0.11972215
0.41229197 0.15763131 -0.11657868
0.42811859 0.15832113 -0.11127467
0.43670627 0.15690967 -0.10692961
0.40325519 0.17458475 -0.11879118
0.41188949 0.17212676 -0.11462954
0.4277648 0.17259185 -0.10892978
0.43717858 0.17119606 -0.10612305
0.39971733 0.18840608 -0.11845928
0.41183874 0.18736136 -0.11305773
0.42658153 0.18652211 -0.10783723
0.43742853 0.18766014 -0.10596336
0.39960495 0.20071232 -0.11695943
0.41079366 0.20151033 -0.11215888
0.42638493 0.20429361 -0.10809343
0.43858832 0.20067735 -0.10662212
0.41416666 0.21214965 -0.10948178
0.42434663 0.21334895 -0.10706785
0.55299997 -0.28546461 -0.092996821
0.55781817 -0.28733784 -0.091228567
0.53515095 -0.27351674 -0.10302515
0.54808098 -0.27720377 -0.095556341
0.55641651 -0.27858841 -0.090767018
0.5339998 -0.26198 -0.10169547
0.54631537 -0.26202893 -0.093974888
0.55524993 -0.26602018 -0.090241343
0.53413856 -0.24719548 -0.10066552
0.54523754 -0.24775349 -0.093386635
0.55499995 -0.24127039 -0.090200715
0.52231497 -0.2311957 -0.10354002
0.53272158 -0.23293284 -0.099103823
0.54639059 -0.23270489 -0.093005382
0.55666661 -0.23683184 -0.090245724
0.51884145 -0.21612695 -0.10278486
0.532489 -0.21728101 -0.097049892
0.54325342 -0.21878293 -0.091753893
0.5185082 -0.20300083 -0.10314674
0.53193319 -0.20251888 -0.096363947
0.54104763 -0.2063123 -0.090717196
0.50799996 -0.18220818 -0.1043838
0.51770037 -0.18702598 -0.101592
0.53218871 -0.18786593 -0.094549589
0.54028571 -0.18330976 -0.090797812
0.50475591 -0.17206405 -0.10345232
0.51675367 -0.17226039 -0.10047933
0.53280616 -0.17281561 -0.094375551
0.50628579 -0.1568047 -0.10342295
0.51556903 -0.15677327 -0.099642776
0.53170818 -0.15783177 -0.093172014
0.50368512 -0.14500514 -0.10284325
0.51645166 -0.14439866 -0.09819372
0.53133333 -0.14553374 -0.092714436
0.41066062 -0.10824858 -0.095871843
0.40144414 -0.096430659 -0.095584713
0.40610006 -0.10245354 -0.099317916
0.39675301 -0.082261547 -0.097331099
0.39903748 -0.067436315 -0.097524479
0.40277767 -0.057924062 -0.096105248
0.40920028 -0.05121142 -0.097333975
0.41681245 -0.043648459 -0.091235876
0.42080003 -0.042641856 -0.092288636
0.45833337 -0.039357066 -0.10063234
0.47271022 -0.034337435 -0.10154144
0.48918512 -0.03206164 -0.095890261
0.50438464 -0.031065151 -0.091480292
0.50999999 -0.032011636 -0.090292752
0.47648787 -0.025493007 -0.10312388
0.48651063 -0.021589052 -0.098570146
0.49858782 -0.022344047 -0.091952644
0.47793025 -0.0041462542 -0.10385469
0.48563802 -0.0073141805 -0.098915316
0.49998021 -0.0082404958 -0.092311986
0.47559705 0.0079367077 -0.10350057
0.48557624 0.0074730753 -0.096987285
0.49938446 0.0075523024 -0.091147333
0.47311091 0.022760764 -0.1016947
0.48512581 0.02158957 -0.096676849
0.50104684 0.022949168 -0.092424586
0.47334409 0.037091862 -0.10195966
0.48752114 0.03828191 -0.095492102
0.49737507 0.035389151 -0.091593452
0.46359998 0.059251457 -0.10436696
0.4743776 0.054484922 -0.10250151
0.48591554 0.052160125 -0.096180543
0.49511105 0.048418224 -0.090053216
0.46210381 0.068782717 -0.10395461
0.47181335 0.067457654 -0.098553523
0.482977 0.067010872 -0.092122458
0.45972878 0.082420498 -0.10254283
0.47208092 0.082758062 -0.097744063
0.48446229 0.082866833 -0.09239386
0.45918536 0.098090775 -0.10161665
0.47231528 0.097603083 -0.095329642
0.48371625 0.097072311 -0.091035359
0.44793522 0.11507849 -0.10399179
0.45601258 0.11189009 -0.10096778
0.47214809 0.11242166 -0.095066495
0.48098284 0.11237757 -0.090613574
0.44592494 0.12769777 -0.10324743
0.45743448 0.12788275 -0.10034183
0.47303373 0.12769873 -0.095264003
0.48006877 0.12719451 -0.090762563
0.44402683 0.14268792 -0.10348966
0.45817491 0.14298616 -0.099080808
0.47064716 0.14174347 -0.093149453
0.4815 0.13701959 -0.090101764
0.44483712 0.15865761 -0.10273605
0.45742321 0.15742758 -0.097902447
0.46806335 0.15724593 -0.092258528
0.44407764 0.17149724 -0.10227443
0.45681164 0.17273746 -0.096407928
0.46741259 0.17203307 -0.09193565
0.44443953 0.18754022 -0.10172594
0.45747676 0.18754901 -0.094512209
0.46636111 0.18403232 -0.090842649
0.43192595 0.20817089 -0.10413714
0.44323143 0.20317967 -0.1005221
0.45565587 0.2022178 -0.093415357
0.43079063 0.21620125 -0.10291588
0.44063631 0.21707767 -0.098028444
0.45472053 0.2175725 -0.09251637
0.44544831 0.22728774 -0.095366627
0.45407251 0.2287433 -0.091549478
0.58299994 -0.30095181 -0.080642022
0.59358966 -0.30439046 -0.077626526
0.60447615 -0.30788854 -0.075344197
0.56566668 -0.28858078 -0.087030999
0.5774737 -0.29151979 -0.08102119
0.59122521 -0.29290479 -0.076464973
0.60249996 -0.29690427 -0.075562634
0.56358892 -0.27716658 -0.086673886
0.57685822 -0.27782318 -0.080219217
0.58936673 -0.27769959 -0.076319598
0.60099995 -0.28357351 -0.075374514
0.55323076 -0.25773841 -0.089294985
0.56189799 -0.26246932 -0.085610576
0.5776642 -0.2618489 -0.080515638
0.59238029 -0.26249751 -0.076506741
0.55250001 -0.24896868 -0.089252926
0.56196433 -0.24798341 -0.087453268
0.57627857 -0.24790855 -0.083611853
0.59178853 -0.24868108 -0.078015469
0.55299997 -0.22567694 -0.089875668
0.56329072 -0.23153013 -0.086470895
0.57729506 -0.23251672 -0.079680279
0.58743745 -0.23747928 -0.076395504
0.55033338 -0.215691 -0.088663451
0.56209779 -0.21764533 -0.084057368
0.57537287 -0.2173032 -0.077727184
0.54725552 -0.20146787 -0.086982474
0.5626508 -0.20247611 -0.08128956
0.57455862 -0.2032515 -0.07671383
0.54726362 -0.18774232 -0.086633302
0.56266505 -0.18668981 -0.080102161
0.57297719 -0.18912591 -0.075701177
0.54799181 -0.17285657 -0.087462917
0.56245798 -0.17264183 -0.080451131
0.5713529 -0.17267674 -0.075288981
0.53707892 -0.15573014 -0.089065336
0.54796189 -0.15730296 -0.084930114
0.56267089 -0.15772229 -0.078268975
0.56999999 -0.15627129 -0.075165242
0.53724241 -0.14672281 -0.088731132
0.54752254 -0.14469908 -0.085513629
0.55932647 -0.14245506 -0.079169832
0.55720001 -0.13450904 -0.080667689
0.40868458 -0.10766836 -0.082900442
0.40149876 -0.095525764 -0.083059534
0.40660647 -0.10266808 -0.080371328
0.39787722 -0.082348533 -0.082692556
0.39898795 -0.067554817 -0.082497895
0.40557149 -0.061466973 -0.076165766
0.40272501 -0.057632461 -0.085615836
0.41073883 -0.052031841 -0.082472727
0.42447057 -0.046572343 -0.078341529
0.41797295 -0.043615542 -0.087576538
0.42622775 -0.042944968 -0.079991952
0.51826918 -0.031306483 -0.087421887
0.5306251 -0.032694869 -0.081255823
0.54473066 -0.03682274 -0.077021725
0.50727779 -0.02074532 -0.089400187
0.51967108 -0.022206133 -0.086530283
0.53190869 -0.022550229 -0.080265909
0.54286438 -0.022931326 -0.07626047
0.50710171 -0.0062770057 -0.088738061
0.51709914 -0.0071974318 -0.08489275
0.53190768 -0.0070890607 -0.079252794
0.54226094 -0.0091763865 -0.076240808
0.50681233 0.0062139789 -0.088908248
0.51719934 0.007758602 -0.084963463
0.53065115 0.007696284 -0.078137793
0.5073449 0.023583775 -0.088847049
0.51667732 0.022459373 -0.083530642
0.52908415 0.02190445 -0.077046871
0.50387818 0.038664192 -0.087063335
0.51669204 0.037073657 -0.081173427
0.52801412 0.036970057 -0.07636603
0.49250004 0.056948069 -0.088828422
0.50236404 0.052354738 -0.085582457
0.5161047 0.052238576 -0.078802846
0.52572227 0.052679975 -0.075357974
0.49052376 0.067702487 -0.088327184
0.50141746 0.067349821 -0.083461955
0.51786274 0.067494951 -0.07830514
0.52500004 0.067437999 -0.075160466
0.4911527 0.081748582 -0.08902178
0.50197047 0.082545228 -0.084306099
0.51663905 0.082632452 -0.078759573
0.5264346 0.082361028 -0.076195739
0.48906481 0.098435335 -0.088339411
0.50181586 0.096687309 -0.083129555
0.51553851 0.097814359 -0.076979831
0.48863357 0.11301181 -0.087264925
0.50041968 0.11230101 -0.082011789
0.51679713 0.11227275 -0.077272169
0.52522224 0.11069097 -0.075192295
0.48815301 0.12805665 -0.086255535
0.50191456 0.12710711 -0.079536811
0.51094598 0.12710281 -0.075776078
0.47717145 0.14660627 -0.088965774
0.48773476 0.14243142 -0.085449204
0.50167257 0.14309922 -0.078712136
0.51000017 0.14081363 -0.075893
0.47555843 0.15664102 -0.088874787
0.48702511 0.15728237 -0.084189095
0.50179607 0.1576627 -0.077722602
0.50999999 0.15850765 -0.075892985
0.4742271 0.17298827 -0.087665893
0.48830667 0.17272627 -0.083154418
0.49917954 0.17182498 -0.077730276
0.46399999 0.19362825 -0.089634977
0.4723663 0.18796435 -0.08633399
0.48727065 0.18752126 -0.080061987
0.4984028 0.18493439 -0.076251544
0.46246836 0.20471008 -0.088352136
0.47148776 0.20207503 -0.084065117
0.48706228 0.20236585 -0.077926539
0.49499997 0.19697936 -0.07565745
0.46164316 0.21714348 -0.08821819
0.47136313 0.218169 -0.081882514
0.48507267 0.21540749 -0.076786324
0.4608438 0.23161158 -0.088368565
0.47007662 0.23241203 -0.081049971
0.46884608 0.24063689 -0.079716749
0.63999999 -0.3306337 -0.061419748
0.61199999 -0.31641576 -0.073298134
0.62283933 -0.31907386 -0.068247885
0.63578367 -0.32214099 -0.062692262
0.61005133 -0.30635747 -0.072375797
0.62200856 -0.30722558 -0.066818938
0.63408476 -0.30757201 -0.061798148
0.59699994 -0.28602132 -0.074872851
0.60848415 -0.29254726 -0.071922056
0.62263572 -0.29299128 -0.066205278
0.63328326 -0.29282808 -0.061568659
0.59778947 -0.27565685 -0.073904209
0.60658163 -0.27728271 -0.070578806
0.62274724 -0.27723077 -0.064415887
0.63079995 -0.28058717 -0.061147906
0.59705007 -0.26556954 -0.074444227
0.60646677 -0.26246327 -0.070561305
0.62226427 -0.26291424 -0.063420579
0.59711117 -0.24351954 -0.07386899
0.60595942 -0.24791819 -0.069217056
0.6198684 -0.24849977 -0.062348574
0.58299994 -0.22663051 -0.074998289
0.59300941 -0.23155299 -0.07165806
0.60623199 -0.232777 -0.06563285
0.61851656 -0.23219906 -0.061100714
0.58270586 -0.21669501 -0.074794158
0.59117335 -0.21760108 -0.071376957
0.60614395 -0.21773374 -0.065612108
0.61638081 -0.21739092 -0.061390277
0.58134359 -0.20143825 -0.072978973
0.59114814 -0.20187449 -0.069322221
0.60719776 -0.20191319 -0.063630961
0.61581236 -0.20708989 -0.061085835
0.57928371 -0.18756078 -0.073176466
0.59168494 -0.18762003 -0.068731241
0.60427797 -0.18802972 -0.062617145
0.5790078 -0.17167936 -0.071639754
0.59155786 -0.17233317 -0.065716356
0.60283339 -0.17393608 -0.061766334
0.57801729 -0.15697542 -0.070425354
0.59008211 -0.16007492 -0.063819632
0.60149997 -0.1639367 -0.060393699
0.56684619 -0.14366022 -0.074044533
0.57728571 -0.14843647 -0.069824949
0.41054526 -0.10718594 -0.071550034
0.40327254 -0.092514738 -0.0721808
0.40817484 -0.097904511 -0.067171067
0.40256003 -0.081812225 -0.068549611
0.40529102 -0.087612785 -0.064489603
0.40285429 -0.071372904 -0.070957318
0.40837559 -0.065501057 -0.067516036
0.41289821 -0.055889413 -0.070397891
0.42717111 -0.05010679 -0.068307541
0.4294 -0.043165639 -0.073113859
0.5505414 -0.03714706 -0.072418585
0.56197155 -0.034225952 -0.066348977
0.57199997 -0.030826604 -0.06066297
0.55005985 -0.022591108 -0.072927885
0.56260866 -0.022557383 -0.066393413
0.5731079 -0.021704912 -0.06107866
0.54863071 -0.006549946 -0.072280608
0.56112009 -0.0078741349 -0.066503353
0.57422376 -0.0074662361 -0.061600029
0.53742301 0.0086569618 -0.074037202
0.54735297 0.0070007793 -0.071083881
0.56002653 0.0073099672 -0.06564793
0.5736509 0.0074787233 -0.061304878
0.53622055 0.02339099 -0.073722973
0.54695886 0.022571666 -0.06968306
0.56096506 0.022557195 -0.063549012
0.57247061 0.017724494 -0.060818791
0.53572834 0.038308755 -0.073085338
0.54739994 0.037716318 -0.068198591
0.55799031 0.03661805 -0.062436953
0.53287047 0.053894877 -0.072583616
0.54751396 0.051814727 -0.067125492
0.55766189 0.052777253 -0.061610535
0.53214413 0.066944063 -0.072202325
0.54809999 0.068675026 -0.067449801
0.55992359 0.067123182 -0.06259577
0.52299994 0.089967884 -0.074452236
0.53335935 0.082828663 -0.071808361
0.54858977 0.082293741 -0.064995952
0.55566669 0.080892727 -0.060765829
0.52174276 0.096364878 -0.074163541
0.53290951 0.098330438 -0.06977804
0.54502243 0.096260078 -0.063125104
0.55499995 0.090099052 -0.060650948
0.52183324 0.11858109 -0.073954642
0.53194737 0.11250264 -0.068993442
0.54250616 0.11216258 -0.061819851
0.51816326 0.12824883 -0.071920715
0.53148079 0.12676847 -0.066164479
0.5421285 0.1273835 -0.061452627
0.51762694 0.14222558 -0.070761584
0.53099078 0.1412981 -0.063874058
0.54338455 0.14235835 -0.060885809
0.50899994 0.16435708 -0.074512333
0.51758826 0.15811677 -0.071027845
0.53196669 0.15788579 -0.064586535
0.54225445 0.15661526 -0.061197378
0.50614488 0.1730509 -0.073868237
0.51686656 0.17240262 -0.068826556
0.53080159 0.1713752 -0.062552057
0.54139996 0.17157803 -0.060387064
0.50341511 0.18855259 -0.073548771
0.51774186 0.18727981 -0.069372639
0.53016704 0.18840882 -0.063109815
0.53999996 0.18133813 -0.060754236
0.49361107 0.20505378 -0.074515924
0.50178492 0.20277202 -0.071603678
0.51684469 0.20197009 -0.067467161
0.52846545 0.201563 -0.062970355
0.47447029 0.22394566 -0.066824421
0.48716569 0.22195663 -0.06959676
0.50293285 0.21947594 -0.068368144
0.51593828 0.21676005 -0.063994497
0.52749985 0.21447191 -0.061489586
0.4691886 0.23231152 -0.067715041
0.49182352 0.22540373 -0.067005202
0.49948573 0.22549501 -0.066922307
0.46858329 0.24065726 -0.069101095
0.64219999 -0.33120027 -0.059196394
0.64958233 -0.33342123 -0.051953334
0.64217728 -0.32070154 -0.057155732
0.64674556 -0.32346219 -0.05097973
0.64103949 -0.30752093 -0.055695541
0.64633721 -0.30643049 -0.048817858
0.64038527 -0.29219761 -0.055887144
0.64647239 -0.2931771 -0.048808988
0.63927025 -0.277477 -0.055483647
0.64585716 -0.27688161 -0.048018854
0.62899995 -0.25516969 -0.05960416
0.63856202 -0.26210028 -0.0555273
0.64551967 -0.26372474 -0.048142951
0.62630004 -0.2452832 -0.058605332
0.63752162 -0.24728617 -0.052542966
0.64569712 -0.24672046 -0.046190675
0.62538284 -0.23196979 -0.058099516
0.63691461 -0.23279732 -0.05326857
0.64990574 -0.23229545 -0.047390889
0.62423939 -0.21756697 -0.058125891
0.63697088 -0.21729967 -0.053091165
0.64953601 -0.21838878 -0.047539365
0.61199999 -0.19593185 -0.059968065
0.62269413 -0.20230904 -0.057162873
0.63783485 -0.20248096 -0.05150428
0.64709997 -0.20298931 -0.047095735
0.61153644 -0.1866401 -0.058982823
0.62067074 -0.18768172 -0.055863492
0.63767034 -0.18724498 -0.050834656
0.64605135 -0.1884435 -0.04675911
0.60971433 -0.17178278 -0.058001086
0.62002432 -0.17534359 -0.055109661
0.63578123 -0.17728227 -0.050484926
0.64533329 -0.17848729 -0.045534015
0.6034286 -0.16272601 -0.058777142
0.389 -0.090013668 -0.045962211
0.39472619 -0.094143935 -0.04998086
0.40674186 -0.094524458 -0.058485061
0.38567808 -0.080725215 -0.048804361
0.39569819 -0.084063172 -0.055557702
0.38588282 -0.069350153 -0.04879377
0.39444935 -0.066718772 -0.054584391
0.40770006 -0.062065881 -0.058927406
0.39593688 -0.055948585 -0.048456926
0.41266665 -0.058864355 -0.059411414
0.57199997 -0.030826604 -0.059740096
0.59429169 -0.032505274 -0.0542714
0.60196775 -0.032691717 -0.04904731
0.58021373 -0.022395475 -0.058212146
0.5928461 -0.022269648 -0.052580826
0.60325366 -0.023056561 -0.047135822
0.58126879 -0.0073221982 -0.058394849
0.59193355 -0.0072748773 -0.05249447
0.60180718 -0.0082061645 -0.046752524
0.58117646 0.0079875346 -0.058185454
0.59166318 0.0078084082 -0.051024772
0.60090905 0.0033150262 -0.045572065
0.56859988 0.028078172 -0.058926303
0.57783985 0.023010364 -0.056321416
0.59007806 0.022084026 -0.04947577
0.5657258 0.03806489 -0.058669176
0.57791907 0.038939379 -0.052920669
0.58867902 0.034200247 -0.049118944
0.56660253 0.05403458 -0.054639738
0.57220656 0.049437482 -0.050033811
0.56707484 0.06773039 -0.052631229
0.57000011 0.065005898 -0.052962296
0.56376463 0.08215531 -0.053493831
0.57126319 0.087307915 -0.046515722
0.55071431 0.099568538 -0.058819611
0.56265181 0.096643113 -0.054759271
0.57446802 0.098371945 -0.048380226
0.58590001 0.10116571 -0.045405325
0.54990226 0.11310526 -0.058119599
0.56188965 0.11215067 -0.053851798
0.57476336 0.11213677 -0.048318498
0.54943764 0.12769358 -0.057929672
0.56363904 0.12736589 -0.053278238
0.57433009 0.1273898 -0.047607094
0.54997808 0.14202243 -0.057972997
0.56277353 0.14302354 -0.052459344
0.57417053 0.14203651 -0.047192179
0.55005014 0.15860529 -0.057402018
0.56093079 0.15715659 -0.0505777
0.57189476 0.15301891 -0.04588715
0.54852885 0.17222586 -0.057194255
0.55969632 0.17285408 -0.049536921
0.53820831 0.19119316 -0.059068702
0.54729104 0.18818888 -0.056094773
0.55965233 0.1869524 -0.049422536
0.53571951 0.20317563 -0.056451906
0.54596603 0.20198287 -0.050384611
0.55990273 0.2006713 -0.046613738
0.46311107 0.22406231 -0.045877445
0.4722054 0.22333235 -0.052367389
0.48716128 0.22259751 -0.052318152
0.50152373 0.22137874 -0.052214883
0.51732594 0.22120772 -0.052721586
0.53303039 0.21791017 -0.053667754
0.54412615 0.21399099 -0.04858036
0.46206164 0.23207371 -0.051893961
0.46622205 0.22711779 -0.055455644
0.64848089 -0.29155073 -0.042717572
0.64710915 -0.27715093 -0.042183954
0.64735496 -0.26188061 -0.041312117
0.64965343 -0.24796045 -0.040964693
0.65636808 -0.23494707 -0.041889738
0.66039568 -0.22996347 -0.038937766
0.65630507 -0.21628086 -0.041537933
0.66033334 -0.22073048 -0.038068965
0.65382689 -0.20189142 -0.040224638
0.65150356 -0.18705118 -0.039384224
0.64822483 -0.17664568 -0.041000571
0.39703178 -0.10629424 -0.035563424
0.38428736 -0.093746506 -0.035026621
0.39446461 -0.10046218 -0.039105866
0.38041857 -0.082126185 -0.03739598
0.38198861 -0.067287341 -0.037220202
0.38757452 -0.057615157 -0.034921844
0.39555147 -0.053200696 -0.039228819
0.405 -0.047641397 -0.040664904
0.62542856 -0.033412322 -0.041094713
0.63453335 -0.032145537 -0.03472054
0.64499998 -0.035801589 -0.030941317
0.60968 -0.021132531 -0.043743212
0.6226868 -0.022416564 -0.03901203
0.63525599 -0.023010718 -0.033003293
0.60942239 -0.0072766324 -0.042500254
0.62299991 -0.0077808988 -0.037626378
0.63580006 -0.0072751846 -0.032942034
0.59846669 0.012234402 -0.043256529
0.6066696 0.0077988799 -0.040350676
0.6228556 0.0071755615 -0.035079677
0.63410807 0.0050096777 -0.031715009
0.58373338 0.029014735 -0.032900423
0.59236932 0.022552505 -0.038312707
0.60443997 0.016347999 -0.033473242
0.616 0.016006488 -0.030544026
0.56741661 0.043357 -0.031874016
0.57796049 0.037811831 -0.037291005
0.58833319 0.031944498 -0.043006264
0.56689674 0.053581901 -0.036695592
0.57162243 0.047751877 -0.041622229
0.5667299 0.067474544 -0.037810955
0.56696379 0.078362525 -0.038438655
0.57534891 0.08594013 -0.037535179
0.58156413 0.092632383 -0.041510042
0.59148788 0.098330118 -0.037558354
0.60211766 0.10266277 -0.032196373
0.58311772 0.11253816 -0.04443701
0.59232289 0.11241144 -0.040188938
0.60422534 0.11291137 -0.033218373
0.581797 0.12858278 -0.043233417
0.59139121 0.126919 -0.039026104
0.60438937 0.1272745 -0.032952126
0.58081001 0.14269863 -0.042429216
0.59173805 0.14223772 -0.03732178
0.60578477 0.14247385 -0.032258146
0.56742853 0.16176745 -0.044352584
0.57697415 0.15802464 -0.040919434
0.59146059 0.1570605 -0.035739802
0.60577631 0.15703493 -0.031856246
0.56680959 0.17261961 -0.043228064
0.57539612 0.17275207 -0.037945088
0.59225571 0.17267194 -0.033294287
0.605434 0.17166941 -0.031339478
0.56663394 0.18681082 -0.04295253
0.57623655 0.18731271 -0.03767924
0.59211534 0.18840596 -0.032845054
0.60858065 0.18742497 -0.030649554
0.56575 0.20315446 -0.044175759
0.5785135 0.2026961 -0.039420683
0.59089762 0.20309353 -0.032831658
0.60691667 0.20000264 -0.03062157
0.46033117 0.22363982 -0.036852963
0.47143066 0.22236928 -0.037329506
0.48738274 0.22172362 -0.037404697
0.50049454 0.21924879 -0.037684429
0.51679623 0.21810681 -0.037241697
0.53176922 0.21710156 -0.03802821
0.54698521 0.21729214 -0.040416393
0.56186599 0.21709055 -0.040036839
0.57740831 0.21727832 -0.037884049
0.59083194 0.2173536 -0.033132643
0.44899991 0.22964796 -0.031254828
0.45485976 0.22866161 -0.038112868
0.56799996 0.22557056 -0.030913249
0.57791662 0.22654355 -0.032391839
0.5891515 0.22714964 -0.031627323
0.38900003 -0.10507901 -0.027447414
0.39526135 -0.10722929 -0.021036113
0.38347128 -0.096130595 -0.022841807
0.39165953 -0.10352542 -0.019564604
0.37841058 -0.082250945 -0.02240588
0.38112736 -0.067461886 -0.02247302
0.38660604 -0.057066653 -0.023963401
0.39780387 -0.05145127 -0.021032529
0.40571433 -0.046789777 -0.023344599
0.6426 -0.03255849 -0.029271012
0.652551 -0.03256296 -0.023698743
0.65999997 -0.032196566 -0.017817745
0.64205545 -0.021996008 -0.02890018
0.65282971 -0.022900723 -0.022741191
0.66081244 -0.020416806 -0.016705953
0.64275992 -0.0097483033 -0.0291734
0.65092742 -0.0069698617 -0.024917448
0.66234595 -0.0072202063 -0.018245595
0.62899995 0.014821782 -0.029158944
0.6406222 0.0078247935 -0.028593387
0.65201718 0.0075662965 -0.023215871
0.66188675 0.0072529302 -0.017242039
0.58161479 0.027310489 -0.022749305
0.5909999 0.022652293 -0.023793465
0.60536361 0.021234522 -0.020600563
0.62372965 0.018806241 -0.023467463
0.63699996 0.018092604 -0.020650018
0.65222728 0.016324703 -0.021185374
0.66133332 0.016117278 -0.016786199
0.56393957 0.039742943 -0.020853208
0.5744369 0.033578597 -0.024683971
0.56249821 0.052548952 -0.022571525
0.56234372 0.067592226 -0.022361791
0.56470561 0.07789173 -0.022544324
0.57652557 0.084957384 -0.022939347
0.58633339 0.08903572 -0.022450475
0.59333807 0.09316209 -0.023543799
0.605676 0.10019311 -0.02478615
0.61825001 0.10361006 -0.020426247
0.61194873 0.10973015 -0.027936013
0.62103164 0.1127551 -0.023860414
0.63489175 0.11387344 -0.017755238
0.61289996 0.13000813 -0.028955668
0.62230265 0.12784262 -0.025215307
0.63555652 0.12728363 -0.018484794
0.61260003 0.1393066 -0.028555702
0.6217863 0.14240335 -0.024124721
0.63384467 0.14254618 -0.017278979
0.6123333 0.16066533 -0.029374272
0.62266648 0.15680178 -0.026386902
0.63540852 0.1580185 -0.019056572
0.61133337 0.17224988 -0.029326297
0.62277287 0.17335163 -0.025070285
0.63527173 0.17178586 -0.018373152
0.61062503 0.18731278 -0.029292323
0.62339419 0.18714137 -0.023879057
0.63173312 0.18767612 -0.016745497
0.59899998 0.20936707 -0.02921788
0.6087501 0.20505597 -0.028676102
0.62399954 0.20241912 -0.025677014
0.63326365 0.20340905 -0.018637994
0.44761536 0.22412606 -0.016195711
0.45719388 0.22270884 -0.021811098
0.47212338 0.21990846 -0.02250953
0.48640919 0.21812417 -0.023060065
0.50263166 0.21791466 -0.022042904
0.51585698 0.21628357 -0.023271896
0.52952212 0.21515352 -0.02211708
0.54591668 0.21877943 -0.026347391
0.56999999 0.22498512 -0.029182799
0.59835279 0.21774179 -0.029101053
0.60661936 0.21812111 -0.025426131
0.62324089 0.21691167 -0.020223072
0.63154536 0.21166117 -0.016862938
0.44718191 0.22777742 -0.021902727
0.45131522 0.22610246 -0.025861928
0.57631582 0.22796161 -0.026955426
0.59496164 0.23039623 -0.026189685
0.60638773 0.23201574 -0.021275196
0.61966676 0.23120986 -0.017200859
0.6098181 0.2423086 -0.018513093
0.61671436 0.24342491 -0.01615168
0.39426669 -0.10586535 -0.012552094
0.38624603 -0.094656602 -0.012326521
0.39572594 -0.097480714 -0.0062209596
0.38427052 -0.082629301 -0.012061364
0.39856547 -0.082735315 -0.0051065669
0.40516672 -0.083620407 -0.00087091204
0.38629597 -0.067926347 -0.012208502
0.39639091 -0.067017563 -0.0050283764
0.38899997 -0.059464533 -0.014058181
0.39689681 -0.056112621 -0.0097508803
0.40810007 -0.052380215 -0.0082986131
0.66218525 -0.021909429 -0.014077435
0.66625929 -0.0066761426 -0.013844895
0.66566682 0.0074472139 -0.012508066
0.56611866 0.027474638 -0.0042332606
0.57624602 0.025941173 -0.010953317
0.58779997 0.023238214 -0.01340232
0.60499996 0.021578325 -0.013892637
0.64300001 0.019302066 -0.014246519
0.64977771 0.019266883 -0.01276857
0.66374993 0.016176173 -0.013097682
0.56040055 0.037608705 -0.0074446998
0.57099998 0.030040484 -0.014493789
0.55741584 0.052627698 -0.0073399195
0.55892599 0.06765572 -0.0074987747
0.56442726 0.079282165 -0.0074151191
0.57688469 0.086572029 -0.009047634
0.59399998 0.092116967 -0.0073767519
0.60999995 0.09656693 -0.0012130382
0.62073922 0.10047168 -0.0039540944
0.63095987 0.10352994 -0.010193322
0.6409111 0.11098357 -0.0097109694
0.6463415 0.11693623 -0.0076801148
0.64282143 0.12950975 -0.013463803
0.64973289 0.12765113 -0.0071840994
0.64067787 0.14348297 -0.012422284
0.64924544 0.14216441 -0.0055027916
0.64081204 0.15806738 -0.010039565
0.64831591 0.1558989 -0.0034441908
0.64124978 0.17220056 -0.010811207
0.64747715 0.17306335 -0.0037163703
0.63954002 0.18714045 -0.011553183
0.64871454 0.18761703 -0.0044223382
0.64051437 0.20241649 -0.012252863
0.65054017 0.20305088 -0.0052668448
0.44374201 0.22182228 -0.0065853973
0.4568941 0.21937008 -0.0078052552
0.47173208 0.21745443 -0.0074812802
0.48666042 0.21603836 -0.0081630899
0.50233138 0.21546067 -0.0076701287
0.51809669 0.2153538 -0.007256249
0.52715909 0.21405487 -0.0081565408
0.62899995 0.2225173 -0.014570616
0.63699138 0.21789013 -0.011218231
0.65089738 0.21704306 -0.0041860552
0.44148278 0.2260406 -0.0099800685
0.62713504 0.23461924 -0.013975342
0.63646877 0.23242371 -0.0086274082
0.64727587 0.2307384 -0.0023638213
0.62549019 0.24504308 -0.013062526
0.63575262 0.24710359 -0.0075113587
0.64862514 0.24834202 -0.0022665786
0.63920003 0.25601181 -0.0057041436
0.64969575 0.25803453 -0.0021302947
0.40320691 -0.094193868 0.00069080258
0.40537044 -0.091402195 0.0024040896
0.40400001 -0.078881457 0.00017434923
0.40675095 -0.082445197 0.0028103907
0.4032841 -0.066574275 0.0015651474
0.40593877 -0.072637968 0.0033450285
0.40200001 -0.059938144 0.0014706748
0.56667733 0.025752809 0.0078299595
0.57017636 0.020931305 0.0074970503
0.56131786 0.037675325 0.0074856174
0.55734301 0.052697293 0.0074323644
0.55399996 0.069822177 0.01230584
0.55634803 0.067502722 0.007253774
0.55399996 0.076437622 0.011680156
0.55872405 0.077634491 0.0046901726
0.59699994 0.092582211 0.00073923648
0.65377778 0.13127764 0.0009854032
0.65311098 0.14288755 0.0016585835
0.65232593 0.15782765 0.002919826
0.65240377 0.17230731 0.0039548324
0.65463048 0.18762283 0.0043720645
0.51528573 0.20875062 0.011619327
0.65680003 0.20087025 0.0039148233
0.66061354 0.20703973 0.0077224295
0.43382609 0.2220504 0.011386096
0.44117081 0.21989237 0.0070099309
0.45696959 0.21742614 0.0077373665
0.47214231 0.21642484 0.0068955277
0.48724887 0.21483427 0.008067512
0.50192028 0.21320856 0.0074846586
0.51509643 0.21248417 0.0055267825
0.52522224 0.21211353 0.0013560435
0.65789193 0.22036834 0.0039060488
0.66039979 0.21510778 0.0071845739
0.43799999 0.22518595 0.00018900861
0.6552248 0.23117635 0.0042854724
0.6618979 0.2350186 0.010314186
0.65537781 0.24627288 0.0019089641
0.66475385 0.24854939 0.0093456823
0.65606242 0.25941572 0.00088027859
0.6636219 0.26156119 0.00823812
0.55288637 0.026529511 0.028012618
0.55879337 0.024271047 0.021405637
0.55165523 0.037431836 0.026262404
0.55765676 0.037509788 0.018987203
0.55059272 0.053914387 0.024365654
0.55689454 0.049812008 0.018699046
0.55175847 0.066002019 0.023899548
0.55589473 0.071113318 0.01901404
0.55399996 0.076527022 0.028394856
0.55671424 0.076901853 0.021823792
0.5046531 0.20895877 0.024554923
0.51068759 0.20888734 0.016904145
0.43138272 0.21899781 0.023467194
0.44091633 0.21680185 0.022344071
0.45713916 0.21717645 0.022181572
0.47241077 0.21605229 0.022787083
0.48641968 0.21318309 0.022452611
0.50146979 0.21194527 0.021307092
0.50999999 0.21076673 0.015031273
0.667 0.23959289 0.015353946
0.66713345 0.24824776 0.015357018
0.66400003 0.26047686 0.015284888
0.5518446 0.025391802 0.037219841
0.55519992 0.020967206 0.037685126
0.54638112 0.037593342 0.037640877
0.5444209 0.052323002 0.037508067
0.54943359 0.067487709 0.037463937
0.55238104 0.076643012 0.038084567
0.55499995 0.078456342 0.032475632
0.49836195 0.20850661 0.037064735
0.42849255 0.21549509 0.037422135
0.44151258 0.212852 0.037564002
0.45707181 0.2129166 0.037821863
0.47234815 0.21355325 0.036960702
0.48746926 0.21245858 0.037648648
0.49612254 0.21098535 0.035626441
0.53789997 0.027688984 0.056867894
0.54687268 0.027337316 0.049283754
0.55539989 0.022945452 0.046836752
0.53386056 0.037918448 0.053673707
0.54171658 0.035339903 0.047220223
0.53494471 0.051530089 0.053966638
0.54130781 0.055037901 0.047661595
0.53849995 0.06091693 0.058877766
0.54596835 0.067701966 0.05239841
0.54950005 0.07653895 0.049439624
0.49155858 0.20809622 0.053544201
0.49556243 0.20764805 0.046137527
0.43083489 0.21799666 0.048082206
0.44191438 0.21669318 0.052448165
0.4564245 0.21275847 0.053028788
0.47235069 0.21179731 0.052810263
0.48601252 0.21127781 0.051713828
0.44409999 0.22673993 0.058091868
0.53731751 0.026317179 0.068065889
0.54045236 0.01991272 0.067248479
0.52399999 0.044479184 0.07420142
0.53170645 0.037755322 0.06771113
0.52251148 0.052314896 0.072900005
0.52964497 0.052327566 0.065936387
0.53417492 0.066504084 0.068446942
0.54138988 0.070300259 0.062338345
0.5384286 0.075244904 0.070596591
0.54141665 0.07580772 0.064507715
0.49172008 0.20862022 0.06573014
0.44860002 0.22339571 0.060267329
0.45876646 0.21833788 0.063527584
0.4718422 0.21558091 0.068485655
0.48597151 0.21146439 0.068584934
0.44712502 0.22735131 0.060069166
0.45839477 0.23021321 0.065168396
0.47078928 0.23266099 0.071786948
0.47304341 0.24170569 0.073013917
0.53542751 0.023679962 0.082386918
0.53999996 0.017843988 0.075922593
0.52071536 0.039988995 0.082405955
0.5279482 0.033682767 0.080731407
0.52167434 0.052474253 0.082093365
0.52499986 0.055170797 0.085134387
0.52327031 0.064886004 0.088848762
0.53035837 0.067646377 0.081890613
0.53837496 0.075237423 0.078840151
0.4765192 0.21904559 0.077333152
0.48299998 0.21226846 0.076690853
0.47738099 0.22811949 0.076935641
0.48276535 0.23410246 0.079249434
0.47900006 0.24433258 0.076330252
0.4844524 0.24399683 0.080157526
0.53746146 0.02449926 0.091716826
0.54451066 0.024138644 0.098870285
0.53223306 0.037862286 0.093970731
0.54278094 0.036677781 0.10149095
0.52303421 0.056736141 0.094586305
0.52928275 0.050607406 0.09645427
0.54328561 0.047930591 0.1027616
0.52260393 0.065992557 0.096024677
0.5210768 0.026875054 0.11758363
0.53335714 0.027240917 0.11417991
0.54949975 0.0254678 0.10900541
0.51976675 0.037143651 0.1161895
0.53211659 0.037785292 0.11313425
0.54619974 0.037641756 0.10914745
0.5229091 0.046420414 0.11772484
0.52953571 0.052674185 0.11480048
0.54618299 0.048765589 0.10974229
0.52699995 0.060041215 0.11799012
0.52259028 0.026748886 0.12413137
0.52605575 0.023992201 0.13062799
0.50555539 0.040624246 0.13228799
0.5167464 0.037066132 0.12768547
0.52500004 0.030500835 0.13422912
0.5049305 0.048904914 0.13127092
0.51703769 0.052269261 0.12601297
0.52521032 0.053392261 0.12131302
0.51505888 0.061346181 0.12496452
0.52312201 0.026840756 0.1379012
0.52542865 0.024432313 0.13604578
0.50266665 0.041178364 0.13538493
0.52400005 0.030104514 0.1371861
0.52499998 0.030585553 0.1357538
0.50199997 0.045041945 0.13547607
