# .PCD v0.7 - Point Cloud Data file format
VERSION 0.7
FIELDS x y z
SIZE 4 4 4
TYPE F F F
COUNT 1 1 1
WIDTH 1198
HEIGHT 1
VIEWPOINT 0 0 0 1 0 0 0
POINTS 1198
DATA ascii
0.42644179 -0.21551833 -0.16629122
0.42671618 -0.20151934 -0.16606651
0.42688391 -0.18828028 -0.16590798
0.42296281 -0.17357272 -0.16555379
0.42066669 -0.15787207 -0.16527288
0.42099994 -0.14143999 -0.16535756
0.42090628 -0.12655653 -0.1653056
0.41999999 -0.11921375 -0.16516198
0.42000002 -0.087698564 -0.165162
0.47173002 -0.24229386 -0.15274529
0.44457832 -0.22753946 -0.1594944
0.4594616 -0.23036309 -0.15530044
0.4714843 -0.23397303 -0.15224296
0.48208708 -0.23232047 -0.15053304
0.43057454 -0.21825577 -0.16365911
0.44282469 -0.21743055 -0.16119492
0.45619214 -0.2186742 -0.15545617
0.47339067 -0.21767008 -0.15278955
0.48146063 -0.21619903 -0.15129617
0.43143016 -0.202567 -0.16372968
0.44137564 -0.20220967 -0.16040957
0.45489568 -0.20205455 -0.15701224
0.47282222 -0.20366111 -0.15352388
0.48100007 -0.20677458 -0.1518012
0.43078405 -0.1857537 -0.16329007
0.44235843 -0.18733093 -0.15995978
0.45632201 -0.18756367 -0.1547958
0.4670288 -0.1870638 -0.15066257
0.4286285 -0.17266482 -0.1628017
0.44191363 -0.17222345 -0.15853353
0.45892841 -0.17233099 -0.15388386
0.46673596 -0.17314191 -0.1508971
0.419 -0.15138426 -0.16476874
0.42655033 -0.15668945 -0.16214609
0.44286147 -0.15961738 -0.15800659
0.45912045 -0.15738232 -0.1540309
0.46711105 -0.15551375 -0.15099993
0.42817733 -0.14304708 -0.1618863
0.4428736 -0.14081365 -0.15670669
0.45923147 -0.14144628 -0.15307267
0.46642107 -0.14665116 -0.15085804
0.42639878 -0.12734801 -0.16225117
0.44145489 -0.1284001 -0.15811606
0.45720434 -0.12759264 -0.15357834
0.46599999 -0.12061487 -0.1501696
0.41885003 -0.1114517 -0.16470973
0.42559427 -0.11174393 -0.16130419
0.44198135 -0.11186498 -0.15590277
0.45519567 -0.11457622 -0.15236577
0.46600005 -0.11627656 -0.15040095
0.41892093 -0.097559951 -0.16431074
0.42647523 -0.097354367 -0.16079986
0.44063517 -0.097528026 -0.15424769
0.45149991 -0.097842827 -0.15073426
0.41770011 -0.078727029 -0.16385265
0.42632103 -0.082966194 -0.1609606
0.44135106 -0.082293235 -0.15481208
0.45349577 -0.081801213 -0.15119769
0.41830519 -0.068202682 -0.1638768
0.42644173 -0.066407785 -0.1604384
0.44143054 -0.068091951 -0.15448298
0.45241892 -0.066999584 -0.15091829
0.41769552 -0.052376892 -0.16352233
0.42694369 -0.052720807 -0.15948315
0.442516 -0.05282326 -0.15337907
0.45143434 -0.051601231 -0.15053335
0.41698053 -0.037176456 -0.16261944
0.42801443 -0.037473727 -0.15897182
0.44034985 -0.036904644 -0.15309356
0.4516173 -0.038478542 -0.15075906
0.41662791 -0.022429863 -0.16142324
0.42640087 -0.021662522 -0.15743572
0.44045964 -0.022620846 -0.15283303
0.46040002 -0.021692621 -0.15044467
0.41488522 -0.0070000095 -0.16072695
0.42643377 -0.0076162163 -0.15647195
0.44008422 -0.0077956235 -0.15153585
0.41520128 0.007020602 -0.16114406
0.42696872 0.0077225156 -0.1571852
0.43924552 0.007569809 -0.15184109
0.41530323 0.022708647 -0.16132508
0.42777741 0.022279318 -0.1569677
0.43723252 0.02177209 -0.151558
0.41503349 0.038067508 -0.15978873
0.42697915 0.037063256 -0.15510814
0.43616346 0.038238738 -0.15127346
0.41469735 0.052865364 -0.1591801
0.42651182 0.052403696 -0.15418874
0.43839794 0.053061496 -0.15092281
0.45050001 0.057502314 -0.15008029
0.41317904 0.067206345 -0.15861373
0.42672339 0.06780903 -0.15443945
0.4416289 0.06673035 -0.15175712
0.45016667 0.063758507 -0.15039346
0.41208547 0.082601964 -0.1580534
0.42756233 0.082665525 -0.15370639
0.43723607 0.082088895 -0.15079722
0.41304207 0.097670496 -0.15705232
0.42664972 0.097056769 -0.15230434
0.43504772 0.097302452 -0.15037283
0.41300213 0.11243383 -0.15688391
0.42596582 0.1124019 -0.15160233
0.43517643 0.10820021 -0.15035507
0.41289493 0.12768567 -0.15722924
0.42588297 0.12755351 -0.15185258
0.43566662 0.12844796 -0.15039082
0.40388894 0.14315994 -0.15842821
0.41128492 0.14229172 -0.15564695
0.42424732 0.14236514 -0.15134606
0.40246862 0.15850753 -0.1566872
0.41213816 0.15748939 -0.15423067
0.42307457 0.15633507 -0.15131903
0.40263906 0.17181844 -0.15665674
0.41243711 0.17262895 -0.15330647
0.42026323 0.17423564 -0.15049081
0.4032352 0.18743853 -0.15761164
0.41189075 0.18756743 -0.15375593
0.42309999 0.18920289 -0.15037929
0.40259388 0.20107166 -0.15691924
0.41125482 0.20271908 -0.15317345
0.42287171 0.2006948 -0.15058707
0.435 0.19767138 -0.15000552
0.41384998 0.21144652 -0.15141557
0.41999999 0.21050976 -0.15025401
0.49399999 -0.25540745 -0.14404909
0.50343663 -0.25783977 -0.13952692
0.51179588 -0.25995445 -0.13641177
0.47738892 -0.24369518 -0.14956006
0.48811153 -0.24584611 -0.1466227
0.50105214 -0.247284 -0.14064059
0.51319104 -0.24616344 -0.13620389
0.47556251 -0.23513599 -0.14974375
0.48967594 -0.23204789 -0.14617513
0.499632 -0.23219357 -0.13901435
0.51396435 -0.23764387 -0.13606289
0.48842844 -0.21776661 -0.1456081
0.49802426 -0.21703462 -0.13816302
0.47773331 -0.19704346 -0.14886206
0.48787031 -0.20260911 -0.14483993
0.49846444 -0.20224331 -0.13732857
0.47386071 -0.18658689 -0.14731856
0.48763683 -0.18723109 -0.14238954
0.49825719 -0.18856899 -0.13698958
0.47308806 -0.17216004 -0.14761122
0.48705086 -0.17247802 -0.14120542
0.49834123 -0.16980185 -0.13608307
0.47285736 -0.1579593 -0.14797519
0.4866887 -0.15782447 -0.14309709
0.49992204 -0.15827028 -0.13758883
0.46399999 -0.13769278 -0.14952511
0.4715974 -0.14201018 -0.146882
0.48788765 -0.14213187 -0.14113839
0.4959169 -0.14348474 -0.13630491
0.46308696 -0.12970546 -0.14955552
0.47088966 -0.12734203 -0.14632134
0.48794866 -0.12740257 -0.14075802
0.4970389 -0.12700063 -0.13611147
0.46059996 -0.10842419 -0.14922023
0.47177938 -0.11298504 -0.14669582
0.48736775 -0.1126884 -0.1409118
0.4969998 -0.11307514 -0.13593151
0.45874986 -0.097089879 -0.14821246
0.47171614 -0.096865825 -0.14359722
0.48751122 -0.098109648 -0.13835472
0.4958182 -0.10185573 -0.13519754
0.46023771 -0.082696877 -0.14763625
0.47226626 -0.083030626 -0.14285958
0.48642272 -0.081993409 -0.13792261
0.49599999 -0.075954497 -0.13502923
0.45859465 -0.067722484 -0.14792675
0.47195196 -0.067637883 -0.14416562
0.48777378 -0.067376412 -0.13851647
0.49600002 -0.073153146 -0.13502923
0.45945084 -0.051418718 -0.14796177
0.47183874 -0.052736502 -0.14417917
0.48861018 -0.053306241 -0.13866435
0.49566665 -0.046707928 -0.13547145
0.45874199 -0.038166653 -0.14771345
0.47159064 -0.035771791 -0.14357892
0.48743182 -0.03738147 -0.13858756
0.49575767 -0.040414583 -0.13588391
0.44739467 -0.021510046 -0.14933935
0.45884407 -0.023553381 -0.14818917
0.47065797 -0.022652153 -0.14267424
0.48274478 -0.02259062 -0.13680907
0.44670895 -0.0055916244 -0.14930911
0.45771512 -0.0070593576 -0.14629583
0.47346407 -0.0079461802 -0.14095627
0.48191285 -0.0068992306 -0.13663343
0.44680461 0.0075667938 -0.14870484
0.45708394 0.0074990517 -0.14518556
0.47181314 0.0076634758 -0.14058731
0.48489594 0.0076250592 -0.13655566
0.495 0.014859284 -0.13555564
0.44498217 0.023006145 -0.14897393
0.45702198 0.023038143 -0.14484903
0.47147858 0.021627927 -0.14060804
0.48801184 0.02305235 -0.13778208
0.49586958 0.019023569 -0.13572383
0.44372043 0.037696697 -0.14879534
0.45635682 0.037102092 -0.14401607
0.47361487 0.037735641 -0.13976708
0.48190644 0.036739454 -0.13645612
0.44244057 0.049475327 -0.14877605
0.45718035 0.053218674 -0.14517216
0.47261733 0.052198078 -0.13995259
0.48213243 0.053641416 -0.13624477
0.44538105 0.071863383 -0.14864513
0.45595244 0.067115791 -0.14467736
0.47127852 0.067793697 -0.13848506
0.48318738 0.064604186 -0.13596976
0.44426721 0.082631752 -0.14730686
0.45683023 0.082605563 -0.14300165
0.47211874 0.08239533 -0.13930325
0.48113564 0.083764426 -0.13603374
0.4425593 0.09746927 -0.14731769
0.45709097 0.097261563 -0.14213406
0.47047696 0.097487748 -0.13742211
0.48036364 0.091301285 -0.13626745
0.43360004 0.11517043 -0.14952274
0.44242668 0.11262334 -0.1469928
0.45584279 0.11188094 -0.14147401
0.47068462 0.11241399 -0.13694708
0.48224998 0.1169098 -0.13527112
0.43319049 0.12906994 -0.14948063
0.4425115 0.12776658 -0.14650264
0.45712319 0.12757449 -0.14058523
0.46995789 0.12620173 -0.13675429
0.48266667 0.12352847 -0.13516137
0.43165863 0.1428494 -0.1485671
0.44119611 0.14200221 -0.14494079
0.45736641 0.1420415 -0.14079677
0.46897328 0.14319895 -0.13728611
0.4286592 0.15862516 -0.14856842
0.44373235 0.15803917 -0.1450167
0.45678976 0.15853432 -0.14014482
0.46937081 0.15648323 -0.13761133
0.41900003 0.17011674 -0.14955825
0.42589423 0.17227441 -0.14764413
0.44321927 0.17220213 -0.14457086
0.45649138 0.17244491 -0.1388101
0.46653968 0.17439285 -0.13566388
0.42762899 0.18604204 -0.14849363
0.4416188 0.18743233 -0.14391789
0.45610508 0.18727213 -0.13813421
0.46616668 0.18838887 -0.13518089
0.42816636 0.2049257 -0.14852905
0.44142219 0.20234223 -0.14495882
0.45681062 0.20258093 -0.13832816
0.4666667 0.19940861 -0.13517454
0.41821733 0.21304792 -0.1494101
0.42815012 0.21494168 -0.14676459
0.44055384 0.21720859 -0.14187643
0.45518634 0.21702462 -0.1376023
0.44528976 0.2272329 -0.13962749
0.45478427 0.22902851 -0.13629079
0.55299997 -0.28546542 -0.12378006
0.56431425 -0.28962746 -0.12203609
0.57124996 -0.29465735 -0.12026017
0.52399999 -0.27091804 -0.12954766
0.5340209 -0.27311313 -0.12738325
0.54791152 -0.27669659 -0.12392356
0.55818915 -0.27980924 -0.12133551
0.5194093 -0.26188961 -0.13198788
0.53336501 -0.26257297 -0.12719245
0.54722047 -0.26251128 -0.12259157
0.55499995 -0.26992935 -0.12064594
0.52074331 -0.24856067 -0.13266049
0.53171772 -0.24696843 -0.12763669
0.54662955 -0.24766618 -0.12244934
0.55524993 -0.24451508 -0.12070029
0.50654542 -0.22666812 -0.13440482
0.51784444 -0.23229977 -0.13311905
0.5310505 -0.23287132 -0.12861784
0.54557669 -0.23235688 -0.12309479
0.50509328 -0.21683316 -0.13350134
0.5166899 -0.21731097 -0.13135414
0.5324564 -0.21737824 -0.12706466
0.54495144 -0.218152 -0.12201168
0.50554889 -0.20296431 -0.13360661
0.51703161 -0.20243542 -0.1313715
0.53152537 -0.20231943 -0.12598331
0.5432567 -0.20270523 -0.12133487
0.50466263 -0.18603501 -0.13354595
0.51719534 -0.18727134 -0.1305325
0.53228229 -0.18777716 -0.12520038
0.54331744 -0.18780428 -0.12110766
0.50398946 -0.17337734 -0.13375433
0.51681656 -0.17248544 -0.130274
0.53241158 -0.17236818 -0.1241825
0.54274195 -0.17268671 -0.12021172
0.50663269 -0.15586185 -0.13401765
0.51727271 -0.15798327 -0.13077626
0.53193426 -0.15781951 -0.12459608
0.5428412 -0.15648696 -0.12100302
0.50344479 -0.14196335 -0.1329398
0.5170874 -0.14260772 -0.12934889
0.53189617 -0.14206725 -0.12565631
0.54324162 -0.14348552 -0.12190115
0.50416899 -0.12780821 -0.13318573
0.51722819 -0.12755361 -0.13024034
0.53248519 -0.12761818 -0.12556233
0.54174477 -0.12915657 -0.12086827
0.50439155 -0.1117362 -0.13226965
0.51567221 -0.11186901 -0.12806787
0.53139555 -0.1131015 -0.12344094
0.53999996 -0.118855 -0.12087023
0.49333328 -0.091866925 -0.13456787
0.50232309 -0.097467504 -0.13155369
0.51685482 -0.096847326 -0.12584117
0.52808219 -0.098092519 -0.12168412
0.49280778 -0.084578447 -0.13452637
0.5015946 -0.082418866 -0.13189124
0.51805758 -0.083101869 -0.12699099
0.52957511 -0.081976458 -0.12277326
0.49400002 -0.062096536 -0.13448477
0.50250798 -0.067950867 -0.13207017
0.51769507 -0.067318074 -0.12701856
0.52848709 -0.068161011 -0.12220168
0.49400002 -0.057393301 -0.13448475
0.50133765 -0.052382208 -0.13186204
0.51730281 -0.052474115 -0.12580056
0.52758318 -0.05183005 -0.12119396
0.4922632 -0.031631667 -0.13413328
0.50226921 -0.037780557 -0.13181159
0.51595598 -0.037593603 -0.12612359
0.52805865 -0.037582338 -0.12174046
0.48971009 -0.021526324 -0.13308463
0.50243038 -0.023381393 -0.1299891
0.51708347 -0.022417339 -0.12488353
0.52625984 -0.023645544 -0.12076457
0.48918891 -0.0076108128 -0.13257012
0.50195038 -0.0066147582 -0.12851827
0.51821333 -0.0082974257 -0.12442859
0.52733338 -0.0071803876 -0.12110235
0.49093175 0.0051019634 -0.13335337
0.50071126 0.008222376 -0.1295637
0.51614529 0.0078574084 -0.12374841
0.52586204 0.0045734234 -0.1207186
0.49216673 0.028206987 -0.13391608
0.50191993 0.022314809 -0.13091387
0.51680154 0.022416735 -0.12416982
0.52500004 0.028467586 -0.1204774
0.48907629 0.038351957 -0.13284741
0.50248295 0.03731396 -0.12801413
0.51682776 0.037145421 -0.12306711
0.52593309 0.037395917 -0.12054891
0.48856133 0.052403957 -0.13358012
0.50244612 0.052331012 -0.12875138
0.51626521 0.05342263 -0.12289208
0.52506655 0.050585471 -0.12057739
0.49007246 0.067890443 -0.13363023
0.50119895 0.067574993 -0.12910028
0.51559889 0.067350313 -0.12344255
0.52746671 0.073203169 -0.12049994
0.48872772 0.082507342 -0.13323872
0.50112164 0.083030798 -0.12889451
0.51800013 0.082823612 -0.12377343
0.52565509 0.080914028 -0.12040703
0.47685185 0.099698 -0.13407445
0.48793593 0.09741658 -0.13235927
0.50263762 0.097589925 -0.12707503
0.51565295 0.096529886 -0.1218028
0.52499998 0.091582701 -0.12005388
0.47716662 0.10845388 -0.13464811
0.4882361 0.11258479 -0.1320122
0.50239021 0.11235818 -0.12565427
0.51186287 0.11232321 -0.12078012
0.47440514 0.13094772 -0.13366026
0.48868656 0.12728254 -0.13141558
0.50206047 0.12718822 -0.12573254
0.51275003 0.12902839 -0.1214663
0.47518936 0.14260024 -0.1323176
0.48722339 0.14226489 -0.12816526
0.50214761 0.14246215 -0.12484261
0.51291412 0.14240585 -0.1215713
0.4744083 0.15728426 -0.13254157
0.48765129 0.1576636 -0.12865977
0.50212151 0.15825082 -0.12423199
0.51244432 0.15518627 -0.12088513
0.47276178 0.17270471 -0.13217543
0.48755991 0.17217335 -0.12779841
0.49840519 0.1714776 -0.12262923
0.46261531 0.18690781 -0.13466713
0.4719857 0.18701147 -0.13254292
0.4872857 0.18765864 -0.12785111
0.49850303 0.18800104 -0.12283573
0.46240002 0.20733482 -0.13448575
0.47287634 0.20217219 -0.13289848
0.48757952 0.20291902 -0.12681608
0.49777302 0.20158398 -0.12173741
0.46173725 0.21766211 -0.13387038
0.47158414 0.217968 -0.13162331
0.48732555 0.21723333 -0.1274437
0.49782723 0.21822084 -0.1214119
0.46151721 0.23208474 -0.13391368
0.47086269 0.23219551 -0.13030718
0.48614302 0.23248988 -0.12596112
0.50207245 0.2329812 -0.12264096
0.51063162 0.23798054 -0.12118991
0.47461551 0.24219351 -0.12835392
0.48800007 0.24571261 -0.12383519
0.50006557 0.24256448 -0.12125753
0.51133335 0.24161768 -0.12059472
0.60999995 -0.31538171 -0.10504464
0.58199996 -0.30090517 -0.11524708
0.59358925 -0.3033112 -0.11227542
0.60314292 -0.30697176 -0.10771282
0.56758332 -0.28703952 -0.11910601
0.57800007 -0.29353097 -0.11707217
0.59222263 -0.29225555 -0.11216605
0.60210544 -0.29297802 -0.10710882
0.56241655 -0.27705806 -0.11842941
0.57873076 -0.27805248 -0.11634012
0.59147608 -0.27718738 -0.11124445
0.60102522 -0.27844328 -0.10643053
0.55366665 -0.26213607 -0.1194628
0.5620116 -0.26255888 -0.1185249
0.57820427 -0.26237577 -0.1162587
0.59107393 -0.26303011 -0.11001723
0.60039997 -0.26778969 -0.10532887
0.55388886 -0.25151223 -0.11951075
0.56318188 -0.2476521 -0.11876792
0.57849371 -0.24753644 -0.11413319
0.58893806 -0.24785171 -0.1078943
0.55261761 -0.23092404 -0.11934056
0.56235534 -0.23204382 -0.11653706
0.57821202 -0.23254703 -0.111115
0.58857793 -0.23262294 -0.10666417
0.55158746 -0.21633615 -0.11867172
0.56207895 -0.21769218 -0.11504208
0.57766348 -0.21780592 -0.11087546
0.58978087 -0.21707721 -0.10734466
0.55058753 -0.20224924 -0.11846159
0.56310296 -0.20263053 -0.11488986
0.57801974 -0.20143479 -0.11033426
0.59039992 -0.20331945 -0.10671655
0.55088758 -0.18743326 -0.11834908
0.56218708 -0.18716915 -0.11374131
0.57671726 -0.18783821 -0.10939359
0.58881682 -0.18716207 -0.10639613
0.54915851 -0.17211141 -0.11763205
0.56281388 -0.17241126 -0.11278612
0.57803434 -0.17158289 -0.1082866
0.5878529 -0.17528459 -0.10630552
0.54974765 -0.15800066 -0.11831616
0.56215346 -0.157159 -0.11313926
0.5751276 -0.15761003 -0.10714448
0.55100024 -0.14186861 -0.11830898
0.56164205 -0.14260685 -0.11253367
0.57215005 -0.14245796 -0.1068306
0.54889601 -0.1272343 -0.11787451
0.56335104 -0.12780997 -0.11273734
0.57423472 -0.12688355 -0.10702638
0.53777272 -0.10945491 -0.11942431
0.54640728 -0.11267409 -0.1171006
0.56248868 -0.11242591 -0.11179456
0.5733164 -0.11318208 -0.10682396
0.53485537 -0.096247688 -0.11873629
0.54699057 -0.098601758 -0.11623403
0.56121755 -0.097673535 -0.11034015
0.57114285 -0.10359179 -0.10585614
0.53586757 -0.083756715 -0.1189755
0.5470764 -0.081785038 -0.11540302
0.5586347 -0.083497353 -0.10900068
0.53505576 -0.06620305 -0.11841431
0.54763383 -0.067257784 -0.11169984
0.55585003 -0.072474249 -0.10648121
0.53587615 -0.052170292 -0.11852407
0.54819989 -0.053390756 -0.11244009
0.55834246 -0.049197089 -0.10750885
0.5360809 -0.037533596 -0.11862384
0.54659992 -0.037592363 -0.11442302
0.56158948 -0.037587486 -0.1087191
0.57193339 -0.033344124 -0.10537796
0.53391129 -0.021806812 -0.11751056
0.54703182 -0.022543853 -0.11263397
0.56135672 -0.023091272 -0.10770446
0.57185715 -0.028180771 -0.10532895
0.53469324 -0.0075705042 -0.11787696
0.54681098 -0.0073077781 -0.11248297
0.55968988 -0.0079152798 -0.10708759
0.52399999 0.012770338 -0.1198252
0.53288144 0.0074064378 -0.11734946
0.54692632 0.007775906 -0.11103822
0.5597868 0.0075082425 -0.10626589
0.52350003 0.020831982 -0.119523
0.53152031 0.022510914 -0.11710933
0.54746598 0.022405451 -0.11217935
0.55897027 0.022983674 -0.10705204
0.53423297 0.037900321 -0.1172915
0.54672116 0.037400015 -0.11220165
0.56104261 0.03754282 -0.10750516
0.52349997 0.058374502 -0.11971086
0.53310746 0.052087449 -0.11693852
0.54673022 0.053087778 -0.11190833
0.56069219 0.052423004 -0.10743051
0.52261531 0.065448359 -0.11950857
0.53491861 0.067693263 -0.11877955
0.547135 0.06761986 -0.112158
0.55765218 0.065360308 -0.10621715
0.53125209 0.083400637 -0.11811639
0.54800481 0.081955664 -0.11359996
0.55694783 0.084116146 -0.10766073
0.52074605 0.10051943 -0.1186763
0.53068304 0.097236343 -0.1160823
0.54716033 0.097563729 -0.11137985
0.5568018 0.096936487 -0.10689763
0.51961726 0.11266656 -0.11760988
0.5311352 0.11257108 -0.11391983
0.54717851 0.11198942 -0.10984848
0.55674458 0.11157805 -0.10607808
0.52033049 0.12753226 -0.11815147
0.53050554 0.12726271 -0.1128874
0.54725665 0.12748401 -0.10868943
0.55660868 0.12931627 -0.10617664
0.52000821 0.14234585 -0.1178204
0.53101319 0.14265329 -0.11352947
0.54729503 0.14334439 -0.10942818
0.55646259 0.14287397 -0.10658363
0.50779992 0.16355827 -0.11939786
0.5183059 0.15812463 -0.11796485
0.53214192 0.15736064 -0.11315694
0.54582369 0.15803076 -0.10797855
0.55592865 0.15692514 -0.10569462
0.50498992 0.1733954 -0.11873815
0.51742196 0.17240609 -0.11585819
0.53314888 0.17195816 -0.11233405
0.54607344 0.17207661 -0.10770473
0.55499995 0.16667226 -0.10542335
0.50554341 0.1882083 -0.11842669
0.51694161 0.1876533 -0.1152061
0.53139764 0.18817292 -0.11081844
0.54477143 0.1863783 -0.10758118
0.50509143 0.20274599 -0.11795711
0.51738596 0.20277576 -0.11388202
0.5312677 0.20216425 -0.10896507
0.54285467 0.20140585 -0.10588469
0.50459129 0.21698941 -0.11775458
0.51673067 0.21674293 -0.11354745
0.53160131 0.21708016 -0.10853449
0.54072726 0.21652269 -0.10576569
0.50753844 0.22739103 -0.11838879
0.51651651 0.23346245 -0.11519347
0.53152508 0.23267002 -0.10966478
0.54387653 0.2335678 -0.10615447
0.49399999 0.25278109 -0.11934121
0.50071776 0.24962628 -0.11767268
0.51717126 0.24731508 -0.11542089
0.53020513 0.2473402 -0.10860008
0.50426823 0.25748569 -0.11607429
0.51721364 0.2604644 -0.11248042
0.53150326 0.26222956 -0.10814737
0.53408873 0.27247596 -0.10741404
0.64099997 -0.33089209 -0.095387049
0.65235722 -0.33351666 -0.092707247
0.66142857 -0.33755106 -0.090651482
0.61249995 -0.31618047 -0.10399282
0.62274998 -0.31912029 -0.1000673
0.63646924 -0.32118222 -0.096608967
0.6509999 -0.322335 -0.092535704
0.65999997 -0.32898486 -0.090228006
0.60955101 -0.3066209 -0.10416089
0.62134647 -0.30794871 -0.10107429
0.6359545 -0.30758733 -0.096498668
0.64818364 -0.30939862 -0.091894321
0.60809541 -0.29236624 -0.10400961
0.62209725 -0.29214761 -0.099099539
0.6349141 -0.29220197 -0.093164228
0.64527273 -0.29092607 -0.090296842
0.60843176 -0.27744281 -0.10308024
0.62119496 -0.27783877 -0.097884133
0.6354323 -0.27754009 -0.092222787
0.64499998 -0.28455862 -0.09025868
0.59800005 -0.25766024 -0.10423877
0.60630566 -0.26222891 -0.10142016
0.62096858 -0.26314786 -0.096215591
0.63514668 -0.26265332 -0.09187784
0.59613788 -0.24711286 -0.10404728
0.60616988 -0.24750447 -0.099598214
0.62081707 -0.24719833 -0.095109351
0.63404357 -0.24767824 -0.091877066
0.59576023 -0.23231117 -0.10356096
0.60576147 -0.2323126 -0.099449843
0.62142402 -0.23249544 -0.095033064
0.63483578 -0.23313719 -0.0915666
0.64499998 -0.22523163 -0.090258688
0.59631097 -0.21981053 -0.10407428
0.60699296 -0.21737956 -0.1005321
0.62065035 -0.21760561 -0.094702959
0.63644433 -0.21668904 -0.091734633
0.64776927 -0.21508759 -0.090844482
0.59657133 -0.20094566 -0.10366987
0.60699153 -0.20255348 -0.099587373
0.62058198 -0.20416483 -0.094915643
0.63644886 -0.20318045 -0.092344329
0.64895451 -0.20666379 -0.091092512
0.59534609 -0.18782318 -0.10315771
0.60576189 -0.1873803 -0.097744882
0.62083083 -0.1872997 -0.092257485
0.63127279 -0.19062214 -0.090652272
0.59440178 -0.17211361 -0.10237528
0.60720313 -0.17299971 -0.096816555
0.62048411 -0.17183021 -0.092007875
0.63 -0.16560456 -0.090192556
0.5817073 -0.15608291 -0.10385566
0.59213156 -0.15797351 -0.10141508
0.60676903 -0.15778458 -0.097337998
0.62148005 -0.15756632 -0.093058929
0.63000005 -0.15747163 -0.090192564
0.57933348 -0.14264537 -0.1035717
0.59232229 -0.1421655 -0.10056794
0.6074037 -0.14283065 -0.096959531
0.62143016 -0.1423682 -0.092623137
0.63 -0.14984696 -0.090192556
0.58077282 -0.13043845 -0.1038201
0.59200007 -0.12711217 -0.10150404
0.60679239 -0.12753692 -0.096274599
0.61743236 -0.13062145 -0.092023984
0.57891101 -0.11026403 -0.099452764
0.58913565 -0.11629724 -0.097123794
0.60283333 -0.11906579 -0.092626832
0.56344509 -0.095542625 -0.097198479
0.5712887 -0.1025738 -0.099421337
0.55827463 -0.082398146 -0.097507343
0.55399996 -0.062167514 -0.10350958
0.55605584 -0.067669079 -0.097068399
0.55399996 -0.059357859 -0.10389264
0.55976665 -0.052259475 -0.097597495
0.56791669 -0.043562975 -0.099755153
0.57653272 -0.038017459 -0.099014834
0.59064448 -0.034873091 -0.094891839
0.60319233 -0.032281049 -0.092376098
0.56789464 -0.017823137 -0.10425425
0.57761395 -0.022352753 -0.10261144
0.59213763 -0.022486255 -0.097936459
0.60450017 -0.023578648 -0.092618726
0.56775773 -0.0087487763 -0.1044309
0.57760763 -0.0067113941 -0.10104937
0.59184498 -0.0074534961 -0.094725788
0.6017369 -0.0097394437 -0.091100968
0.56643188 0.0091439625 -0.10387494
0.57796091 0.0072069247 -0.099634826
0.5925045 0.007148732 -0.093305945
0.60149992 0.011358701 -0.090865821
0.56627434 0.021504715 -0.10365718
0.57798636 0.02230335 -0.099801093
0.59160215 0.023017397 -0.094470643
0.60164595 0.022426879 -0.09098509
0.56742519 0.038735669 -0.10421156
0.57708967 0.037213489 -0.10063349
0.59205824 0.037293606 -0.09487012
0.60292453 0.037929334 -0.091213144
0.56724572 0.055333428 -0.10018256
0.57521832 0.051633757 -0.097588658
0.59175855 0.048117518 -0.093446031
0.60144448 0.046199907 -0.090955116
0.56445897 0.067591906 -0.09838403
0.56326449 0.08240971 -0.097913593
0.56454885 0.098080397 -0.096931539
0.56393629 0.11290953 -0.097709909
0.56515348 0.12746502 -0.098053999
0.56453782 0.14183167 -0.098547123
0.57083988 0.14764579 -0.092552319
0.56380457 0.15773766 -0.10128259
0.57457435 0.15797013 -0.093934014
0.55328572 0.1756912 -0.10423584
0.56151259 0.1720946 -0.099925429
0.57552677 0.17235312 -0.093175516
0.58566666 0.17493455 -0.090460181
0.55157679 0.18693054 -0.10413732
0.56177503 0.18741229 -0.099482909
0.57629514 0.18771382 -0.093095765
0.58558333 0.18625067 -0.090447299
0.54972136 0.20376949 -0.10342325
0.56110144 0.20206898 -0.099954173
0.57704121 0.20242085 -0.094349749
0.5866316 0.20693879 -0.091055855
0.53900003 0.21796772 -0.10499301
0.54839289 0.21717328 -0.10206266
0.56063527 0.21762675 -0.096243322
0.57697225 0.21728168 -0.093133077
0.58868617 0.21665348 -0.091128081
0.53899997 0.23971209 -0.10499302
0.55089194 0.2325411 -0.1025615
0.56109279 0.23242077 -0.096130081
0.57643986 0.23278275 -0.091246508
0.53749985 0.24790314 -0.10439024
0.54765713 0.2469624 -0.10243207
0.56192786 0.24753039 -0.096335858
0.57379079 0.24644737 -0.091302097
0.53788239 0.26265031 -0.10477531
0.54777938 0.26276749 -0.10168377
0.56248277 0.26251179 -0.094993889
0.57148367 0.26028717 -0.090736628
0.537875 0.27349544 -0.10477389
0.5484935 0.27622989 -0.1009018
0.56149507 0.27756622 -0.093862087
0.57174999 0.27687848 -0.090155602
0.56237489 0.28721917 -0.092249513
0.69874996 -0.36098477 -0.076076113
0.67160004 -0.34636289 -0.086718984
0.68391514 -0.34949481 -0.081326768
0.69572556 -0.35252392 -0.076684862
0.66694862 -0.33708358 -0.086891562
0.68206948 -0.33767182 -0.081240796
0.69469833 -0.33678856 -0.076925278
0.65740901 -0.3201746 -0.089005485
0.66414297 -0.32314694 -0.086011186
0.68177944 -0.32273605 -0.081775494
0.6935451 -0.32342154 -0.077412046
0.65397561 -0.30728966 -0.088526167
0.6646769 -0.30769828 -0.085362278
0.68203485 -0.30750871 -0.079544052
0.69100004 -0.31043124 -0.076070584
0.65169704 -0.29222482 -0.087476939
0.66647291 -0.29250225 -0.082937628
0.68225503 -0.29255956 -0.077844299
0.64200002 -0.27603441 -0.089273736
0.65101153 -0.27717584 -0.086416945
0.66674954 -0.27756926 -0.08191739
0.68176639 -0.27681017 -0.077448688
0.64288884 -0.26272342 -0.089425385
0.6516071 -0.26277998 -0.086517714
0.66688263 -0.26232165 -0.082158804
0.6801427 -0.26357165 -0.077624381
0.64206254 -0.24674283 -0.089134879
0.651012 -0.24768704 -0.086244479
0.6661166 -0.24690314 -0.08085297
0.6771211 -0.24913231 -0.076378226
0.64246666 -0.23263656 -0.089385882
0.65290928 -0.23254204 -0.085977443
0.66653049 -0.23221816 -0.079331703
0.65330011 -0.2185034 -0.088325866
0.6625548 -0.21763587 -0.081172042
0.64285719 -0.19662155 -0.089068227
0.65451425 -0.20192604 -0.083580695
0.66108495 -0.20388205 -0.077234298
0.62814283 -0.18213116 -0.089347467
0.63856417 -0.18710186 -0.087300554
0.65128243 -0.18746559 -0.081253655
0.66296476 -0.18750505 -0.076179288
0.62812006 -0.17388684 -0.089355811
0.63751638 -0.17233853 -0.086669303
0.65137351 -0.17201813 -0.080561467
0.66062951 -0.17426966 -0.076220088
0.63773584 -0.15765135 -0.086186685
0.65249544 -0.15765665 -0.07940384
0.66133326 -0.15502231 -0.07573691
0.62747061 -0.14111628 -0.088995859
0.63664752 -0.14307739 -0.085475974
0.65105551 -0.14223549 -0.08030919
0.66529626 -0.14311762 -0.076514304
0.68049997 -0.13715062 -0.075463638
0.61228573 -0.1224148 -0.08666382
0.62348008 -0.1286433 -0.087283619
0.63590455 -0.13116702 -0.083335169
0.64906669 -0.13336253 -0.080135748
0.57807368 -0.10800865 -0.082413517
0.59151095 -0.11399471 -0.082951449
0.60305554 -0.11830285 -0.086166777
0.56290603 -0.095940121 -0.082629494
0.57173526 -0.10367166 -0.080631465
0.55850673 -0.082560375 -0.082480751
0.55678618 -0.067536741 -0.082513213
0.56131876 -0.052644756 -0.082529224
0.57054549 -0.046064839 -0.079584904
0.56899995 -0.044437699 -0.088344902
0.57708359 -0.042976532 -0.082508847
0.59201545 -0.03960035 -0.083466426
0.60708696 -0.03581835 -0.084819779
0.62048113 -0.034247749 -0.081732884
0.63372958 -0.03298774 -0.077400431
0.61179256 -0.021649873 -0.088941835
0.62231123 -0.022540234 -0.084641814
0.63558263 -0.022657905 -0.078227244
0.60932249 -0.0070703141 -0.088781036
0.62241203 -0.0077431565 -0.084732249
0.63603163 -0.0072955173 -0.07845924
0.60798407 0.0081586465 -0.088642448
0.62271559 0.0078951875 -0.08490175
0.63764787 0.0071577542 -0.079144977
0.64499998 0.0053109708 -0.076209843
0.60952461 0.022684189 -0.088707343
0.62113959 0.022810588 -0.084176667
0.63730419 0.021943897 -0.078473687
0.64528579 0.023014257 -0.075723045
0.60987496 0.036756173 -0.088865638
0.6206128 0.037811734 -0.084212884
0.63536847 0.037744518 -0.077946194
0.64499998 0.034974471 -0.075689517
0.56388235 0.057675827 -0.082200974
0.57717979 0.053890415 -0.082915679
0.59274459 0.051124033 -0.083594888
0.60756004 0.048408069 -0.086189203
0.62143338 0.047882304 -0.080747344
0.63389993 0.04700198 -0.07652764
0.55967152 0.067346595 -0.082371473
0.56029284 0.082488626 -0.082414784
0.56087077 0.097417638 -0.082172237
0.56353307 0.11282656 -0.082147554
0.56434435 0.12740582 -0.082274981
0.56489801 0.14000016 -0.082207218
0.57195723 0.14815249 -0.082784735
0.5792107 0.15481177 -0.084768541
0.59059209 0.16097398 -0.081576236
0.59999996 0.16421078 -0.079605356
0.59244108 0.171826 -0.087814584
0.60647821 0.17324033 -0.081410527
0.61626667 0.17794399 -0.076889724
0.58399999 0.19328666 -0.089260496
0.59179485 0.18740836 -0.088423789
0.60684091 0.18750662 -0.084398128
0.61835706 0.18748242 -0.078182846
0.58333337 0.19777261 -0.08915861
0.59176922 0.20101191 -0.087511435
0.60675859 0.20151947 -0.083557889
0.62180012 0.20218383 -0.078400813
0.59432364 0.21821803 -0.088408537
0.60627353 0.2179243 -0.084625602
0.62237877 0.2175121 -0.079038307
0.63099998 0.21444257 -0.075064719
0.58199996 0.23347831 -0.089893818
0.5915187 0.23269784 -0.087263353
0.60716742 0.23326065 -0.081667691
0.61952901 0.23079379 -0.077278115
0.57998419 0.24901089 -0.08884944
0.59184223 0.24736357 -0.085163936
0.60687709 0.2470721 -0.079046682
0.61573344 0.24701245 -0.075235449
0.57939261 0.26229596 -0.088478886
0.59278107 0.26228994 -0.084604442
0.60614181 0.2631833 -0.078816265
0.61623067 0.26185635 -0.075677887
0.57841676 0.27770668 -0.088445157
0.59201616 0.27784774 -0.084749021
0.60545057 0.2773591 -0.079002909
0.56837487 0.2890031 -0.089623407
0.57898861 0.29047957 -0.087546937
0.59224129 0.29192373 -0.083709531
0.60701662 0.2919828 -0.078447483
0.6155833 0.29413754 -0.075217128
0.59279311 0.30265123 -0.084820926
0.60779989 0.30672014 -0.079628251
0.61578363 0.30882582 -0.076126605
0.61299998 0.3151575 -0.076385006
0.616 0.31620285 -0.075268038
0.70240003 -0.3615661 -0.073811233
0.71383387 -0.36495465 -0.067536719
0.72164696 -0.36584288 -0.06132783
0.7008847 -0.35223389 -0.073809102
0.71265483 -0.35235941 -0.067425467
0.72126663 -0.35622746 -0.061364599
0.70243746 -0.33696172 -0.0735038
0.7094602 -0.33774951 -0.066726014
0.70134491 -0.32198569 -0.072523654
0.70700049 -0.32265502 -0.064994045
0.69918805 -0.30805531 -0.072786421
0.70970827 -0.30748793 -0.065971211
0.69805551 -0.2921907 -0.073085859
0.71047872 -0.2938464 -0.066602975
0.68766659 -0.27591527 -0.074316084
0.69689715 -0.27674261 -0.067868158
0.70616663 -0.28390989 -0.063590832
0.68716317 -0.25996041 -0.07230749
0.69197851 -0.26392457 -0.066959836
0.68378162 -0.24739617 -0.070361041
0.67319989 -0.22780111 -0.07400164
0.68161452 -0.23374751 -0.069558799
0.67005974 -0.21644226 -0.072443046
0.67958051 -0.21593381 -0.066858359
0.69 -0.21199602 -0.062601388
0.66850007 -0.20300752 -0.073207267
0.68341511 -0.20254397 -0.067820683
0.69199997 -0.20091255 -0.063021392
0.66970444 -0.18701744 -0.0730111
0.68254167 -0.18736237 -0.067231618
0.69054544 -0.19230978 -0.062802687
0.66840965 -0.17185906 -0.072255313
0.67847925 -0.17444566 -0.066293098
0.66779739 -0.1584215 -0.072502956
0.67958438 -0.155074 -0.068424016
0.69 -0.15131354 -0.064827904
0.67173338 -0.14444692 -0.074274085
0.68471235 -0.14459412 -0.071517102
0.69081581 -0.14433488 -0.066398203
0.56899995 -0.10549697 -0.060344808
0.57527041 -0.10885112 -0.067787454
0.56467664 -0.095781401 -0.0669498
0.57120812 -0.1026815 -0.069490209
0.5594449 -0.082514055 -0.067115501
0.55882996 -0.067480884 -0.067351125
0.56392419 -0.055205796 -0.068147264
0.57367837 -0.048078243 -0.066438623
0.57844669 -0.043940824 -0.068409599
0.5893333 -0.041740291 -0.073432699
0.6045 -0.039890513 -0.07337641
0.62699997 -0.038343705 -0.07408306
0.63972408 -0.034859382 -0.073642597
0.65247136 -0.034247342 -0.068291061
0.66199994 -0.031668883 -0.063634448
0.64360005 -0.022741821 -0.074486844
0.65157115 -0.022652399 -0.071228042
0.66651624 -0.022266855 -0.064150639
0.6431818 -0.009752091 -0.07443843
0.6529901 -0.0070611844 -0.071509905
0.66618001 -0.0076415287 -0.064304858
0.65307677 0.0081739333 -0.070514686
0.66167587 0.0060994723 -0.063660353
0.65174425 0.022343058 -0.06810689
0.64339995 0.042153791 -0.074463688
0.65249753 0.037248444 -0.068231456
0.55399996 0.058468636 -0.061346125
0.56084305 0.056090605 -0.067577153
0.57590371 0.051862571 -0.067647204
0.59199995 0.050488897 -0.067326501
0.60441166 0.050902378 -0.067720711
0.61863631 0.050877851 -0.068380073
0.63773996 0.049082439 -0.069826253
0.65016359 0.046826433 -0.066287071
0.5533573 0.066455677 -0.061620243
0.55676383 0.067637198 -0.069087923
0.55335629 0.083385602 -0.06203793
0.55673832 0.082013495 -0.069477342
0.55357498 0.097973324 -0.061344244
0.55715704 0.097411521 -0.068636008
0.55399996 0.10677332 -0.060839616
0.55879599 0.11257874 -0.067648008
0.55399996 0.13329472 -0.060541674
0.55917329 0.12735152 -0.067574494
0.56174845 0.14094163 -0.067351788
0.57155555 0.14879164 -0.071377538
0.57864708 0.15282448 -0.071186729
0.59094739 0.1587248 -0.072402023
0.60033333 0.16381764 -0.073353216
0.61208332 0.16949469 -0.072646439
0.6226511 0.17599402 -0.071748972
0.63230771 0.17807642 -0.068076059
0.62651974 0.18667677 -0.073315516
0.63765526 0.18759945 -0.067279048
0.64552379 0.1918494 -0.061764173
0.6279999 0.19923693 -0.074201211
0.63689959 0.20250452 -0.06955336
0.64623928 0.20326191 -0.062483922
0.62899995 0.22492793 -0.074319378
0.63742453 0.21814099 -0.069622569
0.64639348 0.21583858 -0.06256666
0.62406254 0.23446947 -0.073353156
0.63788503 0.23202401 -0.067359157
0.64499998 0.23418827 -0.061640676
0.62135935 0.24716517 -0.07239797
0.63731587 0.24750017 -0.066833936
0.64577782 0.25061315 -0.061425317
0.62294984 0.26342529 -0.072448768
0.63816124 0.26336935 -0.06671761
0.64639997 0.26177448 -0.061744817
0.61271429 0.27736861 -0.074301511
0.62241834 0.27758604 -0.070322409
0.63313639 0.27692884 -0.064066887
0.64499998 0.27020079 -0.06007969
0.61399996 0.286443 -0.074033022
0.62276745 0.29265472 -0.070303641
0.63090229 0.29228944 -0.063257173
0.62383366 0.30768996 -0.06928239
0.6304397 0.30701125 -0.06210009
0.62480438 0.31833771 -0.067738317
0.63000011 0.32075533 -0.061824262
0.71799999 -0.34630939 -0.059928767
0.71277779 -0.33747259 -0.059492886
0.70850009 -0.32324556 -0.059135839
0.70980006 -0.31199953 -0.059244342
0.5642696 -0.10789758 -0.051195074
0.57160002 -0.110315 -0.058500197
0.55345452 -0.091776073 -0.046113968
0.55988932 -0.097539276 -0.052739363
0.55203593 -0.08213824 -0.046936866
0.55884445 -0.082582146 -0.054750312
0.55342859 -0.072691575 -0.046575841
0.56104594 -0.06702356 -0.053032093
0.5657711 -0.05650096 -0.052069899
0.57452631 -0.0493511 -0.053321626
0.57787025 -0.043263726 -0.051723771
0.67300016 -0.022151664 -0.05888737
0.67499995 -0.023851346 -0.056884266
0.67175007 -0.008566089 -0.058778014
0.66441667 0.0076149618 -0.058671393
0.65457135 0.024019429 -0.059311409
0.55067199 0.056983888 -0.051927883
0.5618971 0.051764969 -0.05197373
0.5758965 0.049298469 -0.054448515
0.59319997 0.048439804 -0.055543967
0.60300004 0.049563255 -0.058437597
0.61899996 0.049047109 -0.059155926
0.54824072 0.067493595 -0.052388042
0.55038106 0.08251071 -0.052744228
0.55040276 0.097389795 -0.052762359
0.55078846 0.11231859 -0.052168634
0.55499989 0.11472787 -0.0597555
0.55109894 0.12756796 -0.052077454
0.55530006 0.12599109 -0.05947439
0.55197918 0.13894993 -0.052539565
0.55586052 0.14284782 -0.05701369
0.64106673 0.16386345 -0.047509845
0.63746047 0.17229801 -0.049101327
0.63371444 0.18161876 -0.048806533
0.64539999 0.19225907 -0.058555003
0.64815384 0.20249639 -0.058804482
0.64930004 0.21269806 -0.05911801
0.63424999 0.28107002 -0.058457423
0.63159394 0.29260749 -0.058321267
0.63104552 0.30610555 -0.058270738
0.55399996 -0.10584479 -0.030151291
0.55937362 -0.10812083 -0.037433743
0.55106419 -0.095533729 -0.035372578
0.55679387 -0.10015608 -0.040627766
0.54716426 -0.082076997 -0.037307899
0.55221426 -0.070205539 -0.035893913
0.55648863 -0.064189129 -0.039255835
0.55399996 -0.058910865 -0.030598208
0.56346393 -0.053714141 -0.037630856
0.57050955 -0.046558853 -0.036681268
0.5719676 -0.044073764 -0.038304791
0.54676872 0.055065036 -0.03701181
0.56147629 0.050302908 -0.041947614
0.57179993 0.047613926 -0.043111313
0.54446596 0.067384861 -0.037489016
0.54470879 0.082444504 -0.037436668
0.54451561 0.097540781 -0.037186377
0.54461801 0.11232948 -0.037557978
0.54850602 0.12490721 -0.036790587
0.64059991 0.1640542 -0.042616647
0.63628286 0.1726238 -0.041728497
0.63300002 0.18141407 -0.04262121
0.55302137 -0.10704415 -0.020857424
0.55569381 -0.10922575 -0.024224108
0.54644841 -0.097306378 -0.022605792
0.53827024 -0.079693578 -0.019772302
0.54110301 -0.083822593 -0.024047032
0.53711528 -0.071179755 -0.017135087
0.54523242 -0.06690079 -0.023375871
0.55049056 -0.057047922 -0.021243183
0.56139129 -0.05031465 -0.022919424
0.57024997 -0.046950392 -0.028850719
0.5606783 -0.040293496 -0.019297384
0.57139999 -0.043887679 -0.028701708
0.53712344 0.056516808 -0.018994363
0.54197121 0.05317346 -0.024939362
0.53575069 0.06730365 -0.021312516
0.54013902 0.068004005 -0.028888592
0.53749621 0.080535069 -0.019235535
0.5411669 0.084257327 -0.02507358
0.53775412 0.099657357 -0.018461481
0.5417946 0.096523657 -0.024889963
0.53618443 0.11191253 -0.020581871
0.54089868 0.1140119 -0.027542068
0.53576982 0.12440079 -0.018585755
0.5430547 0.12793463 -0.025953136
0.54894543 -0.10819234 -0.0075437268
0.53661102 -0.093846962 -0.004642311
0.54307282 -0.099026784 -0.0095145339
0.53516233 -0.082163118 -0.0071544461
0.54024994 -0.088615566 -0.013713452
0.53648573 -0.071033373 -0.0092788599
0.54248047 -0.064546987 -0.0064572659
0.54995328 -0.055124056 -0.0072149024
0.55585712 -0.048048273 -0.0084125819
0.55355549 -0.039211836 -0.006907844
0.55617225 -0.040853973 -0.0086684795
0.5314759 0.055157766 -0.0073641534
0.54133332 0.049444124 -0.0010764871
0.52908242 0.067436501 -0.007395383
0.52962917 0.082294911 -0.0074559059
0.53348368 0.097714543 -0.0075590247
0.53118491 0.11246803 -0.0075648804
0.5299052 0.12641348 -0.0068936539
0.52999997 0.13564512 -0.0057570725
0.54697591 -0.10855339 0.0072542224
0.53377748 -0.095155992 0.0079628406
0.54215002 -0.1027225 0.006544135
0.53176439 -0.082188495 0.007333451
0.53518534 -0.069035731 0.010698812
0.54132086 -0.06599611 0.0046943678
0.54823518 -0.055232573 0.0075272606
0.55695677 -0.048450526 0.0059467079
0.56175005 -0.043871082 0.0052276896
0.54899997 0.044829458 0.010423243
0.53021622 0.054348964 0.0079494966
0.54415506 0.048349209 0.0053984108
0.52677792 0.067305483 0.0073913173
0.52400005 0.081684209 0.01459847
0.52606124 0.082402013 0.0072250869
0.52782321 0.097636349 0.0074760667
0.52352101 0.11675517 0.012666225
0.52746975 0.11186591 0.0066468948
0.52172005 0.12641206 0.0096309325
0.52636313 0.12576412 0.0025314419
0.52499998 0.13521263 0.0027676933
0.53476924 -0.10677262 0.023714555
0.54273164 -0.1085863 0.017508866
0.52311116 -0.093121208 0.028147141
0.52959001 -0.097728856 0.022202117
0.5406667 -0.10402462 0.01593459
0.52281964 -0.083576143 0.027478717
0.52742857 -0.082014769 0.02058246
0.53076595 -0.067955561 0.022904688
0.54137492 -0.06114313 0.018382132
0.53799999 -0.058401983 0.028550308
0.54503554 -0.054196905 0.022061186
0.53574997 0.044179771 0.024874974
0.54099995 0.044176202 0.029037846
0.52334982 0.057290997 0.021207107
0.52889538 0.051135238 0.022956628
0.54074991 0.046336681 0.029678669
0.52282917 0.067535199 0.024640491
0.5255056 0.06788636 0.017878905
0.52378744 0.08076679 0.021878306
0.52500069 0.085278258 0.02372501
0.52205861 0.098536551 0.025217662
0.52522367 0.095834024 0.018607827
0.5212003 0.11252962 0.022604302
0.52499998 0.10598481 0.015896898
0.52120829 0.12579374 0.022204924
0.52262509 -0.10713945 0.039431073
0.5253334 -0.10616043 0.032716408
0.52318519 -0.098704122 0.036714453
0.52693629 -0.097347297 0.038353547
0.5229792 -0.08419957 0.032979954
0.52745646 -0.08147341 0.039606739
0.53114927 -0.06773331 0.037299138
0.53681028 -0.056314211 0.03794691
0.54164487 -0.049475588 0.038046245
0.54689997 -0.043813631 0.043066345
0.53486872 0.055565685 0.032404866
0.54559302 0.053054154 0.037675373
0.52262497 0.068986975 0.031756632
0.52890325 0.064099334 0.033431642
0.5487749 0.066259451 0.040433478
0.55767864 0.070225082 0.043365981
0.52361768 0.087388635 0.032651294
0.52809191 0.081769779 0.034362037
0.54611427 0.07875476 0.040748455
0.55599999 0.077187814 0.043170728
0.52118838 0.097804345 0.032937974
0.51881379 0.11258586 0.033353899
0.52176207 0.12512852 0.03386578
0.52274418 -0.10903396 0.049539439
0.52808928 -0.10755851 0.054729391
0.53354228 -0.098801054 0.050162148
0.54235077 -0.096953027 0.056968991
0.5337168 -0.081652887 0.051231354
0.54169768 -0.08644142 0.05789784
0.52400005 -0.061802343 0.058625985
0.53048956 -0.0675193 0.052254718
0.52399999 -0.059103023 0.058560938
0.53287119 -0.054803867 0.050350256
0.54074991 -0.046666361 0.046764933
0.5424211 -0.043787152 0.047165833
0.55399996 0.059094425 0.045824628
0.55399996 0.060435396 0.045824628
0.55499995 0.062335666 0.045459621
0.52000004 -0.10910789 0.067960434
0.52799994 -0.10628301 0.06160114
0.52264708 -0.099827223 0.069614455
0.53004271 -0.097034067 0.066614218
0.54188359 -0.09574075 0.061473601
0.52914089 -0.082379431 0.068447247
0.54134381 -0.08639463 0.061808258
0.52400005 -0.061921585 0.061379049
0.52823234 -0.068916842 0.067523487
0.52333331 -0.059168756 0.061722409
0.52338886 -0.11045866 0.075945191
0.52843356 -0.10867751 0.083365746
0.52920306 -0.097792111 0.082652457
0.52029622 -0.07994464 0.083422884
0.5263654 -0.085056715 0.079935089
0.51899999 -0.070019826 0.084651016
0.52988148 -0.066439822 0.079575941
0.51529247 -0.055785839 0.086941049
0.53068835 -0.056959525 0.080128394
0.52220589 -0.10673612 0.10087864
0.52747607 -0.10780281 0.094159149
0.5220781 -0.1003423 0.10123578
0.52720225 -0.097789563 0.097793087
0.50899994 -0.075070456 0.10451595
0.51672083 -0.079486698 0.10109794
0.52719992 -0.087370634 0.10238279
0.50888878 -0.070035353 0.097832054
0.51232445 -0.066169724 0.09880013
0.51356965 -0.055591285 0.096361905
0.51950002 -0.10554107 0.10541432
0.52128559 -0.099290207 0.1080443
0.52828747 -0.092972741 0.10877855
0.50899994 -0.075070456 0.10697963
0.51778334 -0.080518454 0.10781868
0.52704984 -0.087155364 0.10896543
0.50827789 -0.071545631 0.10682766
0.51752859 -0.064498 0.10763567
0.52084631 -0.0570659 0.10636809
