# .PCD v0.7 - Point Cloud Data file format
VERSION 0.7
FIELDS x y z
SIZE 4 4 4
TYPE F F F
COUNT 1 1 1
WIDTH 1363
HEIGHT 1
VIEWPOINT 0 0 0 1 0 0 0
POINTS 1363
DATA ascii
0.41770011 0.083206587 -0.16334599
0.42702931 0.082670584 -0.16024943
0.44171953 0.082623668 -0.15447538
0.45230395 0.080439106 -0.15090659
0.41747302 0.096123546 -0.163229
0.42645562 0.09777347 -0.15909165
0.44181868 0.097172879 -0.15300949
0.4499999 0.097841613 -0.15016189
0.41757762 0.11422109 -0.1630028
0.42615828 0.11229169 -0.15874146
0.44143242 0.11252354 -0.15279302
0.44999999 0.1144442 -0.15009585
0.41656417 0.12720832 -0.16181546
0.42656696 0.12764715 -0.15729146
0.4416073 0.12741448 -0.15245846
0.45000002 0.122795 -0.15009584
0.41464421 0.14331257 -0.15999077
0.42667755 0.14209157 -0.1555611
0.43771058 0.14150034 -0.15123449
0.41390142 0.15810801 -0.15871865
0.42680183 0.15759097 -0.15387888
0.43581817 0.15534477 -0.15082341
0.41400346 0.17253225 -0.15811114
0.42554578 0.17239097 -0.15257812
0.43500003 0.16608356 -0.1500055
0.41388243 0.18753222 -0.15840994
0.42505351 0.1876139 -0.15282665
0.435 0.18854602 -0.15000552
0.41290113 0.20283595 -0.15741646
0.42534646 0.20230424 -0.15261081
0.4154143 0.21194042 -0.15523942
0.42482388 0.21392208 -0.15146945
0.52399999 -0.27049527 -0.14053826
0.5341965 -0.27332169 -0.13830607
0.54112512 -0.27540737 -0.13585445
0.5066607 -0.2586526 -0.14810249
0.51666445 -0.26155132 -0.14353205
0.53283274 -0.26295307 -0.13897413
0.54035711 -0.26053321 -0.13580196
0.50689387 -0.24729742 -0.14811003
0.51590848 -0.2476768 -0.14302292
0.53384846 -0.24683537 -0.13870166
0.5406 -0.25196314 -0.13629636
0.50347096 -0.23183273 -0.1480041
0.51601768 -0.23230602 -0.14295644
0.53025204 -0.23246002 -0.13710947
0.50281048 -0.21691555 -0.14679544
0.51603901 -0.2179731 -0.14092827
0.52924991 -0.21845087 -0.13657072
0.49306986 -0.20164075 -0.14919764
0.50292486 -0.20234744 -0.14622156
0.51608753 -0.20307401 -0.13990916
0.52720308 -0.20376113 -0.1361443
0.49305892 -0.18704447 -0.14920172
0.5037055 -0.18768579 -0.14549781
0.51636374 -0.18742663 -0.13840678
0.528 -0.18096757 -0.13522193
0.4903208 -0.17126192 -0.14797986
0.50325722 -0.17240508 -0.14327803
0.51580018 -0.17175455 -0.13740779
0.52628565 -0.17855839 -0.13550895
0.49020922 -0.15740849 -0.14781916
0.5019998 -0.15785287 -0.1428567
0.51661551 -0.1574499 -0.1379813
0.52499998 -0.157489 -0.1357242
0.48945412 -0.14220375 -0.14724566
0.50068998 -0.14190896 -0.14163437
0.51597005 -0.14397778 -0.1375595
0.48814684 -0.12778482 -0.1467718
0.50152338 -0.12744281 -0.14053904
0.51179737 -0.1284796 -0.1362116
0.48764217 -0.11260395 -0.14651778
0.50163305 -0.11220678 -0.13935825
0.50999999 -0.11883576 -0.13596058
0.47816664 -0.0925145 -0.14946145
0.48739514 -0.097433433 -0.14649612
0.50118655 -0.098102316 -0.13921516
0.47545457 -0.081674449 -0.14830881
0.48716825 -0.082309045 -0.14300139
0.49998757 -0.082712516 -0.13675284
0.47446123 -0.066872977 -0.14728162
0.48733228 -0.067753538 -0.14176208
0.49956399 -0.067483269 -0.13639809
0.47382945 -0.052792199 -0.14706826
0.48719758 -0.05244942 -0.14193869
0.4987846 -0.052618116 -0.13697648
0.47476467 -0.037821151 -0.14809367
0.48731518 -0.037249099 -0.14237231
0.49773222 -0.037741825 -0.13675791
0.47351047 -0.022082314 -0.14711364
0.4873457 -0.022622395 -0.1406704
0.49706745 -0.022777563 -0.13575113
0.47291929 -0.007196785 -0.14628758
0.48655963 -0.0075516878 -0.13937479
0.49583793 -0.009121866 -0.1356118
0.46305555 0.010952152 -0.14917789
0.47212902 0.0075852722 -0.14495215
0.48587814 0.0073582069 -0.13790402
0.49522221 0.0061626546 -0.13552758
0.46303585 0.022811197 -0.14873232
0.47163248 0.022504959 -0.14390744
0.48731685 0.022638349 -0.1383459
0.49623251 0.022943603 -0.13579917
0.46121863 0.037942786 -0.14826117
0.47155946 0.037559301 -0.14294605
0.48422611 0.037069816 -0.13727902
0.49899998 0.030278673 -0.13504083
0.46190822 0.053039193 -0.14872625
0.47119284 0.052583698 -0.14343356
0.48589635 0.052972276 -0.13704976
0.46049488 0.067320593 -0.14736006
0.47149479 0.067829095 -0.14142603
0.48493427 0.066257149 -0.13664991
0.45838058 0.082909241 -0.1469807
0.47211462 0.083225891 -0.14032139
0.48118871 0.079621434 -0.1363274
0.45754489 0.097823568 -0.1453499
0.47109765 0.096693374 -0.13825561
0.44828564 0.11138621 -0.14923903
0.45652717 0.11235165 -0.14408553
0.47015828 0.11226749 -0.13737968
0.44806567 0.13093168 -0.14820263
0.45570248 0.12721951 -0.14307989
0.47033888 0.12721321 -0.13725875
0.44444355 0.14272511 -0.1483365
0.45558777 0.14147016 -0.1420452
0.4666554 0.14331321 -0.13635722
0.44332165 0.15810646 -0.14773497
0.45505509 0.15880945 -0.14131667
0.46677935 0.15569419 -0.13718243
0.43275359 0.17355239 -0.14919868
0.4416149 0.1725105 -0.14588852
0.45661652 0.17236385 -0.13929205
0.46599999 0.16709097 -0.13513254
0.43280774 0.18796551 -0.14947562
0.44204265 0.1872521 -0.14563416
0.45589373 0.18764801 -0.13860102
0.43274966 0.20299369 -0.14889801
0.44204122 0.20267434 -0.14480034
0.45530334 0.20229904 -0.13842183
0.43142518 0.21667622 -0.14798605
0.44075233 0.2169214 -0.14238131
0.45363295 0.21726951 -0.13688262
0.44533333 0.22718474 -0.13947994
0.45269984 0.22836636 -0.13600719
0.55299997 -0.28546542 -0.12824117
0.56377351 -0.28817585 -0.12462967
0.57289785 -0.29254177 -0.1216263
0.54770941 -0.27677491 -0.13020416
0.56107444 -0.27730325 -0.12328389
0.56999999 -0.28458315 -0.12022804
0.54614717 -0.26235101 -0.13013038
0.55962729 -0.26240891 -0.12269374
0.53833336 -0.24227771 -0.13424918
0.54636532 -0.24839582 -0.13019338
0.56174129 -0.24713095 -0.12372756
0.53671235 -0.23237117 -0.13312118
0.54691976 -0.2320435 -0.12923189
0.56058723 -0.23369649 -0.12356267
0.53632045 -0.21715496 -0.13223626
0.54717803 -0.21723732 -0.12621675
0.55709207 -0.21829781 -0.12145787
0.53454483 -0.20206265 -0.13127594
0.54681557 -0.20228042 -0.12422782
0.5561111 -0.20645632 -0.12058792
0.52299988 -0.1876934 -0.13478522
0.53310633 -0.18743788 -0.13137099
0.54647982 -0.18744993 -0.12369702
0.5564 -0.18327788 -0.12047089
0.52266657 -0.17028588 -0.13469934
0.53341752 -0.17286471 -0.13162859
0.54642522 -0.1720164 -0.12502047
0.55626422 -0.17341298 -0.12115598
0.52324998 -0.15738259 -0.13463832
0.53165638 -0.15680787 -0.13110361
0.54667455 -0.1580542 -0.1240145
0.55577773 -0.16268732 -0.12051547
0.52173662 -0.14095035 -0.13343665
0.53095144 -0.14243686 -0.12800258
0.54418159 -0.14282674 -0.12218081
0.51895696 -0.12725337 -0.13275708
0.53180867 -0.12730955 -0.12650402
0.54245901 -0.12770835 -0.1210886
0.50817639 -0.10987382 -0.13458142
0.51662058 -0.11210371 -0.13212368
0.53299606 -0.11276442 -0.12612155
0.54103923 -0.11238921 -0.12110206
0.50768185 -0.094576471 -0.13448574
0.51670128 -0.097636051 -0.1316094
0.53149271 -0.097448282 -0.12539971
0.54083037 -0.096645206 -0.12120329
0.50790477 -0.079631492 -0.13405503
0.51704776 -0.082416281 -0.13116059
0.53202695 -0.082407609 -0.12502569
0.54065007 -0.085148692 -0.12132013
0.50797307 -0.067341842 -0.13380165
0.51777977 -0.067543514 -0.13036637
0.53136396 -0.067553945 -0.12398221
0.50602078 -0.052493289 -0.13423119
0.5183996 -0.05236249 -0.12986425
0.52950889 -0.053111296 -0.12284472
0.50444317 -0.037568197 -0.13410345
0.51689917 -0.037660591 -0.12989169
0.52910244 -0.037296683 -0.12317302
0.50397766 -0.021958936 -0.13288981
0.51782143 -0.022646522 -0.12753262
0.52943301 -0.02328727 -0.12183763
0.5025593 -0.0069028023 -0.13261169
0.51745892 -0.0073555154 -0.12676737
0.52872163 -0.008814632 -0.12175947
0.49400002 0.013234949 -0.13448475
0.50155443 0.0080379276 -0.13261048
0.51692897 0.0076487409 -0.12599538
0.52715093 0.0058547286 -0.12089624
0.49399999 0.0295767 -0.13448475
0.5025658 0.022417996 -0.13111553
0.51527309 0.022355435 -0.12381186
0.49093753 0.039602857 -0.13336495
0.50246179 0.037457816 -0.12906469
0.51548082 0.037017971 -0.12266005
0.49141663 0.049242035 -0.13348511
0.50066024 0.053072833 -0.12834495
0.51514292 0.052041736 -0.12204813
0.49115562 0.070114598 -0.13374673
0.50170279 0.066993393 -0.12830657
0.51413089 0.068333678 -0.12193812
0.47842863 0.088806719 -0.13432553
0.48808882 0.08293663 -0.13252164
0.50231785 0.082260221 -0.12754163
0.51348841 0.08223787 -0.12235901
0.47765675 0.098524816 -0.13423215
0.48762402 0.097276732 -0.13145377
0.50228661 0.0973254 -0.12764083
0.51480776 0.098099805 -0.12339599
0.47723725 0.11269201 -0.13368021
0.48688465 0.11293744 -0.12941886
0.50169402 0.11207563 -0.12386509
0.51203024 0.10668151 -0.12149048
0.47702479 0.12786902 -0.13408935
0.48633352 0.12705941 -0.12937434
0.50110388 0.12784225 -0.12262633
0.47412783 0.14230137 -0.13311417
0.4866617 0.14287345 -0.12794609
0.50124341 0.1420199 -0.12247058
0.47291672 0.15773891 -0.13215132
0.48750526 0.15769355 -0.12666188
0.4977327 0.15617417 -0.12170082
0.46366662 0.17652749 -0.13458017
0.47150794 0.17297137 -0.13173182
0.48829246 0.17243624 -0.12571916
0.49521065 0.1722932 -0.12083212
0.46275866 0.18874294 -0.13415292
0.47217414 0.18732336 -0.13076618
0.48597834 0.18754543 -0.12361977
0.49499995 0.18180269 -0.12078076
0.46231925 0.20306437 -0.13368979
0.47219014 0.20253122 -0.12947519
0.48411497 0.20240219 -0.12291008
0.46126211 0.21786784 -0.13197869
0.47253004 0.21508345 -0.12814984
0.48657522 0.21787882 -0.123354
0.46055877 0.23091692 -0.13181898
0.47153115 0.23449406 -0.12748577
0.48593441 0.23245782 -0.12376654
0.49589992 0.2286258 -0.12051924
0.47522041 0.24234071 -0.12562868
0.48253554 0.2434894 -0.1219416
0.61285716 -0.31615216 -0.10638301
0.616 -0.31699279 -0.105084
0.583 -0.30110863 -0.11748204
0.59350979 -0.30378762 -0.11275953
0.60592061 -0.30776539 -0.10786472
0.5800553 -0.29187092 -0.11679277
0.59037483 -0.29269949 -0.11109805
0.60250807 -0.2932117 -0.10687477
0.56796771 -0.27443328 -0.11891188
0.5771907 -0.27740645 -0.11527803
0.59074235 -0.2773456 -0.10875556
0.60049993 -0.28176364 -0.10570944
0.56764603 -0.26222706 -0.11869961
0.57751226 -0.26237896 -0.1138648
0.58877677 -0.2630395 -0.10767855
0.56761545 -0.2508617 -0.11859657
0.57710654 -0.24736181 -0.11441123
0.58859211 -0.24748589 -0.10775009
0.56665629 -0.22825046 -0.11857669
0.57710552 -0.23286892 -0.11346462
0.58841527 -0.23307984 -0.10681508
0.56503308 -0.21720566 -0.11769081
0.57722086 -0.21756315 -0.11108784
0.58805764 -0.21734998 -0.10609934
0.56305325 -0.20216882 -0.11680988
0.57674527 -0.20253918 -0.10988402
0.58754838 -0.20419373 -0.10588613
0.56229895 -0.18763413 -0.11589888
0.57787091 -0.18757525 -0.10943998
0.58747059 -0.18496701 -0.10646004
0.56288838 -0.17300026 -0.1166086
0.57717758 -0.17184654 -0.11117499
0.58839065 -0.17379335 -0.10695691
0.55327272 -0.15180725 -0.11929582
0.56153399 -0.15779869 -0.11635816
0.57771987 -0.15708001 -0.10943146
0.58533335 -0.16378151 -0.10599107
0.55111998 -0.14134601 -0.11854117
0.56149656 -0.14277039 -0.11479957
0.57731509 -0.14321144 -0.10902035
0.54915893 -0.1270114 -0.11748108
0.56226498 -0.12710156 -0.11243095
0.57298905 -0.12862937 -0.10762513
0.54733074 -0.11218839 -0.11694312
0.56223488 -0.11277717 -0.1112496
0.57259464 -0.11241619 -0.10672631
0.5480746 -0.097465426 -0.11720376
0.56180853 -0.097535953 -0.1105397
0.57149988 -0.099374138 -0.10616955
0.53899997 -0.076015964 -0.11977678
0.54767793 -0.082116097 -0.11529651
0.55994058 -0.082719602 -0.10791469
0.53822201 -0.066096283 -0.11928187
0.54739147 -0.067277543 -0.1151244
0.55798429 -0.06860128 -0.10887953
0.53721774 -0.051805735 -0.11858913
0.54627281 -0.05288671 -0.11198971
0.53738791 -0.037529849 -0.11673416
0.54154289 -0.03743998 -0.11185958
0.53692293 -0.022392122 -0.11887327
0.54393071 -0.022127692 -0.11213794
0.53663599 -0.0067716101 -0.11755303
0.54777473 -0.0079604704 -0.11120366
0.55659467 -0.0041409205 -0.10628263
0.52400005 0.014038692 -0.1198252
0.53432065 0.007161573 -0.11742003
0.54709637 0.0080428962 -0.11133994
0.55675852 0.006238129 -0.10639045
0.52220523 0.023817718 -0.11926254
0.53164321 0.022789637 -0.11559858
0.54723269 0.022469738 -0.10936269
0.55544436 0.019360891 -0.10595584
0.52286667 0.036537312 -0.11919994
0.53196985 0.037726544 -0.1149596
0.54748261 0.037390511 -0.10845303
0.55611986 0.039381616 -0.10570653
0.52140552 0.053867664 -0.11929842
0.53215188 0.051814273 -0.11562289
0.54570341 0.052842848 -0.10862105
0.52106172 0.068246715 -0.11858778
0.53227323 0.068060048 -0.11454249
0.54435003 0.066575617 -0.10873443
0.52081883 0.083118908 -0.1178235
0.53121209 0.082690015 -0.11149988
0.54322606 0.08130873 -0.10682364
0.52168459 0.097569488 -0.11732469
0.53189665 0.098100275 -0.11030602
0.54327095 0.096749574 -0.10606053
0.50816661 0.1172555 -0.11893659
0.51735038 0.1128775 -0.11540564
0.53134567 0.11186601 -0.1084769
0.54014283 0.10773365 -0.10521565
0.50834984 0.12602209 -0.11884967
0.51665419 0.12777905 -0.11432566
0.52987087 0.12728997 -0.107668
0.5071224 0.14571382 -0.11883545
0.51655746 0.14195113 -0.1146929
0.52977705 0.14285535 -0.10793051
0.50461364 0.15824929 -0.11784685
0.51680225 0.15797506 -0.11311621
0.53022075 0.15766436 -0.10827294
0.53999996 0.15606789 -0.10518781
0.50161517 0.17259049 -0.11608677
0.51661313 0.17216963 -0.11073186
0.52944428 0.17200553 -0.10707345
0.49319503 0.19088256 -0.11893176
0.50109887 0.18714097 -0.11564053
0.51705271 0.18794002 -0.10985529
0.52898866 0.18684252 -0.10639244
0.49212667 0.20272547 -0.11888533
0.50157154 0.20221069 -0.11499584
0.5180257 0.20296428 -0.10989541
0.52662265 0.20189352 -0.10586695
0.49294993 0.2145377 -0.11952423
0.50221413 0.21778777 -0.11596776
0.51717776 0.21714424 -0.1095838
0.52510524 0.2166288 -0.10563064
0.49170005 0.23744938 -0.11910095
0.50193989 0.23234719 -0.11630018
0.51723796 0.23305742 -0.10942149
0.5250001 0.22743452 -0.10619863
0.48953718 0.24608794 -0.11750972
0.50188529 0.24753378 -0.11330783
0.5155744 0.24652842 -0.1083409
0.50455546 0.25746211 -0.11133095
0.51302671 0.2596623 -0.1071672
0.64257139 -0.33133239 -0.092731945
0.64864695 -0.33283699 -0.090643562
0.62425625 -0.31897476 -0.099438302
0.63766658 -0.32258111 -0.094127372
0.64873189 -0.3215881 -0.09128122
0.61132002 -0.30462441 -0.10408705
0.62263221 -0.30861846 -0.10027767
0.63572854 -0.30775967 -0.095049791
0.6477648 -0.31089142 -0.091716118
0.60930169 -0.29201317 -0.10352865
0.62211651 -0.29175439 -0.097732604
0.63481534 -0.29093635 -0.092007294
0.64549994 -0.28634125 -0.090328649
0.59844446 -0.27335584 -0.10434189
0.60789114 -0.2778787 -0.10251529
0.62234908 -0.2781308 -0.097656041
0.63657314 -0.27795491 -0.0923829
0.64590907 -0.27975193 -0.090385891
0.59610713 -0.26090801 -0.10379831
0.60675967 -0.26175204 -0.099432185
0.62117952 -0.26314762 -0.094310269
0.6333636 -0.264779 -0.09110415
0.59652138 -0.24756019 -0.10323996
0.6063031 -0.2467996 -0.096884631
0.62013775 -0.24819231 -0.091638461
0.59496683 -0.23248227 -0.10389195
0.60670596 -0.23295465 -0.098381929
0.61834544 -0.23112093 -0.092294335
0.59476572 -0.21751733 -0.10385546
0.6082027 -0.21759562 -0.099468805
0.61934036 -0.21800587 -0.092752956
0.59386742 -0.20133686 -0.10277691
0.6066435 -0.20283936 -0.096970707
0.6207127 -0.20280454 -0.091569602
0.59376907 -0.18790187 -0.10213712
0.60588902 -0.1871559 -0.096198089
0.61837685 -0.1877688 -0.091646463
0.59480333 -0.17238954 -0.10208473
0.60680348 -0.17264603 -0.095394373
0.61571419 -0.17274311 -0.090595193
0.59204757 -0.15745133 -0.10098229
0.60693842 -0.15743731 -0.093653388
0.6166001 -0.15760761 -0.090263844
0.58286959 -0.13773799 -0.10364182
0.59118122 -0.14313053 -0.099868894
0.60563254 -0.14266211 -0.093078837
0.61555552 -0.14541981 -0.090110935
0.58029085 -0.12709163 -0.1022888
0.59176952 -0.1269529 -0.096529983
0.60256064 -0.12778334 -0.091681577
0.58055806 -0.11253341 -0.10324208
0.59147769 -0.11246005 -0.096610822
0.60161906 -0.11420231 -0.091281347
0.56899995 -0.090806022 -0.10441051
0.57821649 -0.097079247 -0.10145214
0.59039134 -0.098176599 -0.094433017
0.6015833 -0.10094135 -0.090572014
0.55185711 -0.076048873 -0.091853298
0.56460685 -0.080471605 -0.099456266
0.57413751 -0.086628012 -0.098256223
0.53647995 -0.062747233 -0.092142694
0.54783779 -0.066705994 -0.09695404
0.55923533 -0.071461774 -0.10184192
0.53323692 -0.051335189 -0.094841935
0.54356951 -0.05409376 -0.10202478
0.53330666 -0.037220906 -0.097620472
0.53509665 -0.024634773 -0.096535318
0.54257774 -0.017689032 -0.099002577
0.54957896 -0.012892365 -0.097783543
0.56218499 -0.0061206506 -0.098632269
0.5722093 -0.0023402749 -0.093422614
0.56362867 0.0074722506 -0.10083345
0.57409495 0.0078788847 -0.093422167
0.56243777 0.02264332 -0.10101978
0.57639855 0.022136224 -0.093812689
0.58533335 0.028906018 -0.090880871
0.562886 0.036895532 -0.10167
0.57668418 0.037736803 -0.095862158
0.58786124 0.038292468 -0.091783285
0.55225796 0.055387806 -0.10415352
0.56265992 0.052405547 -0.10162503
0.57713169 0.052292716 -0.095628135
0.58726525 0.052267041 -0.091208503
0.55125284 0.068277299 -0.10327667
0.56186277 0.067863829 -0.098347694
0.5760709 0.066711344 -0.092939593
0.58599997 0.061089393 -0.090984374
0.55066961 0.082212128 -0.10286483
0.56185699 0.082465239 -0.096493691
0.57459986 0.082520664 -0.091155872
0.54968381 0.098631009 -0.10308552
0.56230348 0.097267777 -0.097856924
0.57446849 0.097542286 -0.092111245
0.53854543 0.1152349 -0.10447001
0.54716247 0.1126259 -0.100994
0.56213433 0.1122357 -0.095130615
0.57428974 0.11151531 -0.091356657
0.53728837 0.1278052 -0.10395796
0.54664952 0.12740426 -0.099979609
0.56259829 0.12766649 -0.09465342
0.57657337 0.12766331 -0.09101931
0.53728175 0.1429058 -0.10363262
0.54660964 0.14280373 -0.09848395
0.56204766 0.14223416 -0.093326539
0.57342094 0.14002369 -0.090902224
0.53785181 0.15871181 -0.1042219
0.54690951 0.15784745 -0.098040141
0.56027687 0.15556253 -0.091245733
0.53622538 0.1733385 -0.10309916
0.54617965 0.17238785 -0.095913872
0.55579996 0.16855337 -0.090569653
0.53613704 0.18697633 -0.10188825
0.54620779 0.18763697 -0.094331242
0.53421897 0.20321296 -0.10288771
0.54577094 0.20203032 -0.095894136
0.55557901 0.20575197 -0.090860374
0.53211302 0.21783791 -0.1012386
0.54577935 0.21735942 -0.094118133
0.55620003 0.21283491 -0.090873763
0.52308571 0.2365154 -0.10336319
0.53102195 0.23154421 -0.09994477
0.54530466 0.23219812 -0.092780061
0.52214712 0.24788103 -0.10312548
0.53053534 0.24864684 -0.098321974
0.54796308 0.2481533 -0.094023988
0.55499989 0.24906683 -0.09020073
0.52052021 0.2620272 -0.10257256
0.53126216 0.26226705 -0.096230179
0.54305494 0.26045308 -0.09112487
0.53433335 0.27235159 -0.094029278
0.5424571 0.27491274 -0.090885974
0.67242849 -0.34672758 -0.082936682
0.68274993 -0.34928402 -0.07915809
0.69081813 -0.35159373 -0.076050565
0.65624148 -0.33464921 -0.088580295
0.66692412 -0.33709273 -0.084576391
0.6813578 -0.33776152 -0.07885994
0.69 -0.34338194 -0.075960487
0.65638906 -0.32200319 -0.088850394
0.66679311 -0.32276398 -0.083894111
0.67825001 -0.32277063 -0.077341668
0.65382355 -0.30646953 -0.088073909
0.66623551 -0.3081879 -0.082225613
0.67973477 -0.30763867 -0.07689514
0.64311105 -0.291969 -0.089417808
0.65197492 -0.29204026 -0.086938597
0.66572136 -0.29257455 -0.081598692
0.678065 -0.29339215 -0.076831222
0.64399999 -0.27164692 -0.0890797
0.65214419 -0.27683038 -0.085418314
0.66486263 -0.27904919 -0.078977078
0.67699999 -0.28447425 -0.0750755
0.64080834 -0.26042324 -0.08821407
0.65135002 -0.26335299 -0.083140135
0.66203517 -0.26281255 -0.077141427
0.62575001 -0.2450799 -0.08854007
0.63697499 -0.24764612 -0.085449696
0.65129995 -0.24707988 -0.079590373
0.66118175 -0.24931353 -0.076181285
0.62479049 -0.23349549 -0.088500261
0.63756752 -0.23165718 -0.084554151
0.64947951 -0.2332402 -0.078234307
0.65999997 -0.23898983 -0.075320013
0.62811118 -0.21708211 -0.089359052
0.63956088 -0.21763441 -0.08472494
0.64956808 -0.21735762 -0.077586308
0.62827265 -0.20183448 -0.089300059
0.63789719 -0.20222405 -0.084377162
0.64867556 -0.20276688 -0.07750053
0.62611634 -0.18663976 -0.088694111
0.63711727 -0.18747051 -0.083114311
0.6479677 -0.18830189 -0.076875634
0.62324452 -0.17192522 -0.087343
0.63683641 -0.17311966 -0.08175572
0.6482498 -0.17182449 -0.07683447
0.62239599 -0.15694515 -0.086728998
0.63658857 -0.15752003 -0.080761828
0.64705402 -0.15935448 -0.076746963
0.61359996 -0.13802592 -0.089329667
0.62164104 -0.14232555 -0.085402712
0.6365214 -0.14271306 -0.07847432
0.61041403 -0.12668554 -0.088141784
0.62104666 -0.12737516 -0.083784088
0.63564557 -0.12794963 -0.078111492
0.60841244 -0.11161014 -0.088173352
0.62176323 -0.11238209 -0.082430355
0.63292587 -0.11330172 -0.076841109
0.59326077 -0.093748622 -0.088092454
0.60769552 -0.10094475 -0.08743678
0.62236708 -0.10073605 -0.082220621
0.63199997 -0.098840199 -0.076874293
0.53869236 -0.075839117 -0.078056745
0.54520553 -0.078821816 -0.081767626
0.5596 -0.083164699 -0.085714392
0.53352195 -0.06652724 -0.081623703
0.54221737 -0.072780631 -0.087136321
0.52363503 -0.047872029 -0.079396322
0.52660716 -0.053949729 -0.083184712
0.52360743 -0.040399451 -0.078094982
0.52643865 -0.036090463 -0.083853982
0.53200334 -0.022440154 -0.082340151
0.54100001 -0.015623602 -0.088798247
0.536421 -0.013691639 -0.079530112
0.54656255 -0.010925507 -0.082359195
0.56351608 -0.0070693903 -0.086370483
0.57473916 -0.0024616693 -0.08800602
0.59253329 -0.0017157287 -0.08253295
0.58074582 0.0067869369 -0.088728487
0.59277678 0.0081825051 -0.084916361
0.60510767 0.007804886 -0.078702182
0.61499995 0.013995675 -0.075145833
0.58333313 0.018922918 -0.089157514
0.59246629 0.022875255 -0.085485801
0.60628843 0.022399183 -0.07875739
0.61586678 0.022462809 -0.075251736
0.59499311 0.037807886 -0.086017624
0.60611504 0.037482042 -0.078793645
0.61499989 0.036324993 -0.075145841
0.59261149 0.051573399 -0.086106047
0.60643476 0.051769964 -0.078328855
0.61600006 0.055045042 -0.075497009
0.58228117 0.070919141 -0.088760376
0.59158295 0.0672241 -0.085810944
0.60568374 0.06767904 -0.079358086
0.61557132 0.062752336 -0.076349661
0.58163756 0.082706168 -0.088351287
0.59212977 0.082663454 -0.08341153
0.60443121 0.082168289 -0.077506907
0.58153993 0.096211784 -0.088543788
0.59292519 0.097882271 -0.083475813
0.60274214 0.097036198 -0.076737925
0.58063495 0.11283457 -0.088548742
0.59303063 0.11204933 -0.084593333
0.6050092 0.11309437 -0.078160599
0.58277273 0.12675251 -0.08911515
0.59319437 0.12874874 -0.08447504
0.60259271 0.12555546 -0.078205235
0.56866664 0.14921127 -0.089669399
0.57969373 0.14441451 -0.087572522
0.59148866 0.14190632 -0.080895036
0.60006249 0.14068529 -0.07543847
0.56480771 0.1593917 -0.089197114
0.57803959 0.1574991 -0.08553572
0.59039348 0.15719642 -0.078325547
0.55399996 0.17665271 -0.089144371
0.56254148 0.17263977 -0.08717344
0.57795584 0.17221874 -0.082367286
0.58869237 0.1707716 -0.077478558
0.55330753 0.18622132 -0.089341819
0.56190234 0.1874204 -0.086276211
0.57812124 0.18729711 -0.080891356
0.5872643 0.18776269 -0.076312974
0.55399996 0.19676724 -0.089144371
0.56292999 0.2026369 -0.086714737
0.57835782 0.20212591 -0.08156307
0.58726573 0.20287248 -0.076981917
0.5531249 0.22139177 -0.089393921
0.56326139 0.21737817 -0.086740255
0.57745886 0.21763733 -0.080681093
0.58734554 0.21614428 -0.076554134
0.55246431 0.23038399 -0.089278437
0.56181657 0.23271586 -0.085988037
0.57755327 0.23277232 -0.07945101
0.58619046 0.23002195 -0.075813934
0.55274999 0.24760787 -0.089835063
0.56190085 0.24765624 -0.086303927
0.57639164 0.24741827 -0.079111129
0.54822588 0.26330927 -0.088780798
0.56263256 0.26197326 -0.086507902
0.57625204 0.26254743 -0.079726279
0.54921734 0.27704528 -0.087518632
0.56177533 0.27856103 -0.08406686
0.57669795 0.27706149 -0.079704456
0.56367928 0.28763133 -0.079447046
0.57430172 0.28832731 -0.076618768
0.72799999 -0.37580261 -0.061350714
0.70169997 -0.36143252 -0.071245871
0.71309263 -0.36454135 -0.065406449
0.72313035 -0.36788952 -0.061320197
0.69739175 -0.35213614 -0.07229618
0.71087259 -0.35242707 -0.065714926
0.72038448 -0.35269323 -0.060708947
0.68654543 -0.33360717 -0.074421018
0.69620544 -0.33775553 -0.071331277
0.71235716 -0.33732083 -0.065450944
0.72161543 -0.33815637 -0.06081266
0.68507415 -0.32200819 -0.074331455
0.69619715 -0.32238519 -0.071697965
0.71169341 -0.3229968 -0.065449022
0.72099996 -0.32914093 -0.060760807
0.68608701 -0.30730471 -0.074493356
0.69763541 -0.30628288 -0.069081329
0.70688373 -0.3109594 -0.063930459
0.68477774 -0.29089865 -0.071211703
0.69382125 -0.29372713 -0.064869791
0.67066669 -0.27418196 -0.072814144
0.68162602 -0.27794677 -0.067117043
0.6933589 -0.27754691 -0.061225835
0.66969061 -0.26253709 -0.072559275
0.68204629 -0.26293573 -0.066077165
0.6927501 -0.26261321 -0.061200209
0.66778678 -0.24723887 -0.071819022
0.68224221 -0.24729165 -0.065415807
0.69099981 -0.24917011 -0.061084721
0.65661901 -0.22994798 -0.074075453
0.66819745 -0.23288313 -0.07119412
0.68274337 -0.23254198 -0.064700149
0.65693748 -0.2183668 -0.074075468
0.66696125 -0.21746309 -0.071142137
0.68240815 -0.21773812 -0.064927936
0.69 -0.21533635 -0.060931496
0.65656418 -0.20210123 -0.073893994
0.66679388 -0.20246696 -0.070533715
0.68212134 -0.20261329 -0.065189175
0.69199997 -0.20188761 -0.060615379
0.65666693 -0.1878026 -0.073877983
0.66686076 -0.18752651 -0.070167378
0.68268007 -0.18737967 -0.064474538
0.69166642 -0.1874557 -0.0605812
0.65557146 -0.17268218 -0.073755063
0.66595155 -0.17265846 -0.070162669
0.68244588 -0.17347951 -0.065744959
0.69239306 -0.1712435 -0.062127136
0.64399999 -0.15005925 -0.07453312
0.65267211 -0.15711327 -0.073314898
0.66790253 -0.15816492 -0.070303969
0.68245852 -0.15667626 -0.066118643
0.69211632 -0.16007595 -0.062101487
0.64249998 -0.14401008 -0.074359529
0.65151709 -0.14240184 -0.072967179
0.66769993 -0.1413614 -0.068724081
0.68084866 -0.14294025 -0.063328944
0.69374996 -0.13981846 -0.06014334
0.65149456 -0.12745769 -0.072177336
0.66690779 -0.12700447 -0.066547982
0.68130493 -0.12841333 -0.062185429
0.69333333 -0.13358456 -0.060107216
0.64076197 -0.1126013 -0.074156098
0.65132505 -0.11261104 -0.070634507
0.66744208 -0.11243358 -0.065386951
0.67779994 -0.11313394 -0.06127394
0.6395278 -0.10020212 -0.073666804
0.65223533 -0.10022836 -0.069427751
0.66732609 -0.10113021 -0.064932071
0.67699999 -0.10093898 -0.061420348
0.53625584 -0.077817626 -0.068698458
0.54115379 -0.082499862 -0.073042527
0.52400011 -0.061047841 -0.063434899
0.52954799 -0.067878045 -0.067705646
0.52281338 -0.051769748 -0.066962086
0.5254209 -0.055584375 -0.070627555
0.52348268 -0.040204804 -0.071098782
0.52557635 -0.035539933 -0.065486774
0.53128302 -0.022325804 -0.067278594
0.53999996 -0.015159833 -0.061189853
0.53662795 -0.013129538 -0.069106936
0.54231036 -0.010450755 -0.067607097
0.60450006 -0.0012995271 -0.072701789
0.61499995 -0.00039432768 -0.069688447
0.64899999 -0.00093976711 -0.064117149
0.6117335 0.0053601465 -0.072947465
0.62084633 0.0091372924 -0.070235796
0.63464272 0.011006571 -0.066247761
0.65016967 0.0060844314 -0.062396325
0.65999997 0.013422204 -0.060944457
0.62132645 0.022734724 -0.072113015
0.63808078 0.02235752 -0.067116268
0.65144747 0.023036268 -0.06244047
0.66028571 0.018754777 -0.060438178
0.61399996 0.043696925 -0.074033007
0.62185854 0.037975401 -0.071503729
0.63689417 0.03720203 -0.065890655
0.65113789 0.036938161 -0.061423533
0.65999997 0.043243036 -0.060412031
0.61399996 0.046669327 -0.074033007
0.62259644 0.052675154 -0.070935048
0.63687325 0.053108055 -0.065405279
0.64850014 0.051769495 -0.061904352
0.65999997 0.045373093 -0.060412031
0.61300004 0.07201542 -0.074307829
0.62072694 0.067320548 -0.070228584
0.63623798 0.067530602 -0.064336836
0.64618438 0.067063756 -0.061066691
0.61284459 0.08267425 -0.073892355
0.62137949 0.081962436 -0.068770401
0.63606483 0.083136275 -0.062822022
0.64599997 0.077246234 -0.060693964
0.61013001 0.097750165 -0.073049121
0.62123621 0.098570138 -0.068102479
0.63532627 0.096691988 -0.063110456
0.61183012 0.11236893 -0.073360607
0.62019271 0.11250962 -0.067470841
0.63328338 0.11251061 -0.061537117
0.60893929 0.12815598 -0.072124206
0.62065935 0.12704755 -0.065941282
0.63253051 0.12690555 -0.061143529
0.60689485 0.14280282 -0.070878163
0.62009555 0.14234634 -0.0643209
0.63169223 0.14164615 -0.060902491
0.59793752 0.15969725 -0.074175015
0.6066339 0.15724894 -0.070670314
0.62179172 0.15748253 -0.064295493
0.63025004 0.16282864 -0.061247908
0.59532863 0.17336908 -0.073420808
0.60630506 0.17297928 -0.068011716
0.62116492 0.17191567 -0.062696576
0.63183331 0.16697398 -0.060890324
0.59445977 0.18628417 -0.072935954
0.60622531 0.18744987 -0.067238361
0.61953557 0.18899956 -0.061933629
0.59370482 0.2031907 -0.072271094
0.60623139 0.20249997 -0.066971339
0.61829501 0.20144194 -0.062203933
0.59357727 0.21798074 -0.071166076
0.60652417 0.21749137 -0.064142115
0.61559993 0.21338044 -0.0609162
0.59337157 0.23277022 -0.070070878
0.60377157 0.23190981 -0.06257806
0.582865 0.24986365 -0.074064806
0.59253269 0.24740526 -0.069563888
0.60108286 0.24728194 -0.062717944
0.58250749 0.2621204 -0.073333926
0.59183574 0.26260433 -0.066315398
0.60125011 0.258699 -0.061407391
0.58275807 0.27735543 -0.073615335
0.59170985 0.27774391 -0.066263586
0.58067745 0.29197744 -0.072597072
0.59174305 0.29236576 -0.065897122
0.60081816 0.29664278 -0.060545824
0.59399986 0.30277431 -0.063718461
0.60149997 0.30050698 -0.060393721
0.75600004 -0.39056113 -0.046937648
0.73066664 -0.37659019 -0.059217703
0.74294722 -0.37990573 -0.052721091
0.75238717 -0.38324386 -0.047329567
0.72839606 -0.36592811 -0.056999005
0.74119776 -0.36751279 -0.050404914
0.75184619 -0.36687946 -0.045771178
0.7272498 -0.35235366 -0.056662969
0.74198961 -0.35256734 -0.050097577
0.75283331 -0.35217822 -0.045831274
0.72851342 -0.33725238 -0.056525271
0.74097341 -0.33830729 -0.049736269
0.75049996 -0.34018749 -0.045689221
0.71734613 -0.31941539 -0.057868473
0.72610444 -0.3228682 -0.053564321
0.73879647 -0.32293588 -0.047354311
0.704 -0.30149975 -0.059328165
0.7128948 -0.30695623 -0.056056134
0.72734988 -0.30765751 -0.050195903
0.73825002 -0.30940247 -0.046174731
0.70151514 -0.29199886 -0.058654092
0.71313453 -0.29202232 -0.054148927
0.72649997 -0.29265085 -0.048361368
0.73580003 -0.2973091 -0.04598147
0.70008337 -0.27769986 -0.058525432
0.71165967 -0.2772755 -0.053351242
0.72441292 -0.27801615 -0.04714432
0.70051676 -0.26213589 -0.057522979
0.7126388 -0.26267302 -0.050979584
0.72349995 -0.26303932 -0.04573686
0.69762832 -0.24695259 -0.057221059
0.7121591 -0.24749061 -0.050148152
0.72342312 -0.24474968 -0.046014842
0.68815374 -0.23252846 -0.059658181
0.69701797 -0.23286654 -0.057508949
0.71258801 -0.23271206 -0.052528448
0.7262944 -0.23268376 -0.047176249
0.68819994 -0.22254772 -0.059662189
0.69626975 -0.21728733 -0.057946444
0.71223879 -0.21742509 -0.052499291
0.72397733 -0.21800463 -0.04691188
0.69822925 -0.20237869 -0.057080884
0.71220624 -0.20237492 -0.050259303
0.72139996 -0.20476349 -0.045778826
0.69770509 -0.18711205 -0.056351159
0.71035993 -0.18751864 -0.049182255
0.72099996 -0.19476081 -0.045056589
0.69931775 -0.17240494 -0.055302799
0.70870841 -0.17224821 -0.048220176
0.69846696 -0.15776026 -0.055558693
0.71111506 -0.1567868 -0.048675455
0.69868183 -0.14347181 -0.057148095
0.7127564 -0.142231 -0.05051738
0.71999997 -0.14569296 -0.046155762
0.68699992 -0.1229431 -0.059003949
0.6972 -0.1268995 -0.05653733
0.71050006 -0.12854126 -0.050038654
0.68385077 -0.11148304 -0.057730027
0.69653857 -0.11231205 -0.051454458
0.70729995 -0.11387052 -0.046328671
0.68475008 -0.10118946 -0.057797574
0.69789636 -0.098596789 -0.050340448
0.70500004 -0.09715189 -0.045194186
0.53486103 -0.076390058 -0.056426514
0.54380769 -0.0765232 -0.049126592
0.70499998 -0.089188367 -0.045194186
0.52399999 -0.060540497 -0.05878501
0.53155899 -0.066742688 -0.05361066
0.54194653 -0.071203314 -0.047589608
0.523763 -0.052602366 -0.058282055
0.52807266 -0.052434448 -0.050881065
0.52399999 -0.044305567 -0.057685945
0.52956283 -0.037532713 -0.052534904
0.53999996 -0.03128051 -0.045507409
0.53514981 -0.02422034 -0.054978397
0.5443179 -0.021069463 -0.048675273
0.54660708 -0.013740573 -0.05469545
0.55624998 -0.013372006 -0.049569841
0.63599998 -0.0075919009 -0.054623745
0.65232146 -0.0034421224 -0.05481242
0.665775 -0.0037551005 -0.049007092
0.68008578 -0.0081896111 -0.046599399
0.65515387 0.0048731249 -0.05697098
0.66628802 0.0086407363 -0.05123052
0.67637503 0.0086381352 -0.045745939
0.65757149 0.026104767 -0.059128795
0.66707969 0.022330647 -0.054565698
0.67756361 0.022950087 -0.047764596
0.65700001 0.035629116 -0.059077412
0.667 0.03734244 -0.055522393
0.67778879 0.037699621 -0.048656553
0.65511906 0.055677734 -0.057947382
0.66766661 0.052982416 -0.053833101
0.67708331 0.050429109 -0.048529182
0.65473634 0.067243725 -0.056995787
0.66660243 0.067750908 -0.049500883
0.67499995 0.060564358 -0.045449153
0.64266658 0.086138003 -0.05895419
0.65209651 0.082845517 -0.055085331
0.66438532 0.081363395 -0.048565518
0.64217657 0.096996978 -0.058413252
0.65009201 0.097695611 -0.052921947
0.66258174 0.097277649 -0.047310047
0.64055556 0.11372087 -0.058801759
0.65135169 0.11272725 -0.053474508
0.66218877 0.1116721 -0.047142636
0.6402176 0.1278671 -0.057697479
0.65115327 0.12694958 -0.051908132
0.66292679 0.12792112 -0.046851549
0.63899982 0.14268152 -0.057891279
0.65083325 0.14254825 -0.052206758
0.66211998 0.14257067 -0.046929963
0.63684088 0.15730682 -0.057723463
0.65170538 0.15759359 -0.051779222
0.6618371 0.15766059 -0.046746325
0.6261 0.17760697 -0.059630275
0.6370092 0.17323534 -0.05669615
0.65176702 0.17246237 -0.050704345
0.66109079 0.17122902 -0.046451077
0.62482607 0.1864403 -0.05960108
0.6375044 0.18773131 -0.055844087
0.65065891 0.18763113 -0.048572067
0.62515491 0.20453116 -0.05806924
0.63596678 0.20233023 -0.052896596
0.64847219 0.20107399 -0.047493838
0.61199999 0.22428045 -0.059968084
0.62229401 0.21774991 -0.056588434
0.63500822 0.21694039 -0.049400084
0.64583331 0.2168716 -0.045569312
0.61002523 0.23575354 -0.053152259
0.62043273 0.23111968 -0.0527106
0.6360001 0.22946107 -0.048433159
0.64499998 0.22804743 -0.045510512
0.59899998 0.24750365 -0.045339826
0.60294068 0.24696225 -0.052892849
0.59848756 0.26583633 -0.047128409
0.60280812 0.2627809 -0.053580124
0.5987494 0.27379903 -0.05189728
0.6012789 0.2789166 -0.053391922
0.60724247 0.29230395 -0.054066807
0.61542857 0.29775041 -0.0477506
0.60709655 0.30662674 -0.056266613
0.61918151 0.30780905 -0.04936504
0.62226313 0.31766945 -0.047542188
0.76171428 -0.39182854 -0.041216057
0.76737827 -0.3941724 -0.034096189
0.76008707 -0.38211134 -0.040369168
0.7678225 -0.38230127 -0.032912798
0.75872505 -0.36807492 -0.041728463
0.7715376 -0.36792246 -0.035033006
0.78300011 -0.36381051 -0.031504668
0.75921571 -0.3532728 -0.043020979
0.77104503 -0.3528811 -0.038146146
0.78447771 -0.35167652 -0.032599431
0.7573902 -0.33669916 -0.043061685
0.77090752 -0.33799025 -0.038605332
0.78422445 -0.33908692 -0.033198226
0.74724996 -0.32062867 -0.043682922
0.75779998 -0.32172588 -0.040525679
0.77025998 -0.32272545 -0.034235738
0.74458838 -0.30630183 -0.043099247
0.75830901 -0.30720168 -0.036448337
0.76572722 -0.31209812 -0.031341553
0.7327143 -0.28896862 -0.044606462
0.74161661 -0.2923924 -0.04172758
0.756908 -0.29243812 -0.034232564
0.73162949 -0.27682111 -0.043532517
0.7420153 -0.2769489 -0.039487306
0.75665152 -0.27834517 -0.033159118
0.72953707 -0.2614015 -0.041899394
0.74199998 -0.26296276 -0.036761381
0.75469565 -0.26205578 -0.031991865
0.72876114 -0.24807855 -0.042094514
0.74202406 -0.24643819 -0.03630257
0.75268424 -0.2514573 -0.031951629
0.73120403 -0.2327722 -0.042753924
0.74067891 -0.23252536 -0.035460863
0.75199997 -0.226191 -0.030007754
0.72989661 -0.21726917 -0.042216994
0.73956835 -0.21795847 -0.035149381
0.72912931 -0.20235468 -0.040890969
0.7390272 -0.20271735 -0.033680782
0.71819991 -0.18427059 -0.044533599
0.72689712 -0.18727076 -0.039466061
0.73784786 -0.1885964 -0.032467321
0.71771789 -0.17225344 -0.043691441
0.72758335 -0.17303877 -0.038277894
0.73830205 -0.17166883 -0.032536726
0.7180714 -0.15936837 -0.044624995
0.72717625 -0.15727367 -0.040319864
0.73853117 -0.15758078 -0.033207513
0.71899992 -0.13968943 -0.044931605
0.72675443 -0.14221723 -0.039853424
0.73773074 -0.14323546 -0.03259328
0.71672231 -0.12608063 -0.043342434
0.72668642 -0.1275681 -0.037406903
0.73666662 -0.12903619 -0.031640351
0.71397454 -0.11220203 -0.041507393
0.72549468 -0.11257549 -0.033967897
0.71233004 -0.097118825 -0.040448345
0.7241466 -0.097920112 -0.033095904
0.54699999 -0.075378835 -0.044332236
0.71558601 -0.082994521 -0.039494865
0.72345465 -0.082150422 -0.03245407
0.53736818 -0.063246049 -0.038795196
0.54275715 -0.06947156 -0.04147711
0.71564513 -0.067024007 -0.037868101
0.72221851 -0.069478653 -0.031402104
0.53713167 -0.055608708 -0.041286461
0.54329377 -0.050708458 -0.039160222
0.71383083 -0.05228987 -0.036540598
0.72299999 -0.04654789 -0.03001705
0.53735119 -0.039384861 -0.043981869
0.54243791 -0.037281509 -0.040714201
0.71473163 -0.037562568 -0.037536196
0.72212118 -0.03870476 -0.031249156
0.5496667 -0.024053225 -0.041656002
0.70300001 -0.016901422 -0.040529042
0.71203202 -0.02259597 -0.035721716
0.68440896 -0.0031513548 -0.04361878
0.69724709 -0.0070956759 -0.0398825
0.70972747 -0.0080899326 -0.033561625
0.68332893 0.0080636702 -0.042345118
0.69641459 0.0072274501 -0.036614977
0.7077316 0.0072027007 -0.031804103
0.68562746 0.023101978 -0.042668827
0.69617504 0.0228491 -0.036326811
0.7057693 0.021314112 -0.031140978
0.68534178 0.037989363 -0.042459086
0.69513583 0.037175551 -0.034633316
0.68377352 0.052889731 -0.040848207
0.69497758 0.0517454 -0.033390738
0.67349994 0.071840115 -0.0437182
0.68140996 0.06698969 -0.040523138
0.6952889 0.067354783 -0.033788446
0.70581818 0.069020674 -0.030442499
0.67090195 0.083053589 -0.04338707
0.68199956 0.082499668 -0.038262717
0.69554275 0.08230076 -0.032330655
0.67023069 0.096294776 -0.043904193
0.68168253 0.0973332 -0.038926028
0.69346911 0.097556889 -0.032678843
0.66949064 0.11310217 -0.043565392
0.68162334 0.11262528 -0.03883227
0.69407713 0.11251936 -0.032813504
0.66954702 0.12747537 -0.043466933
0.68192834 0.1282661 -0.038009793
0.69502962 0.12668067 -0.032245189
0.6689707 0.14251891 -0.042990059
0.68112141 0.14240268 -0.036794856
0.69369775 0.14184855 -0.031166373
0.66973513 0.15800273 -0.041642684
0.68099058 0.15748316 -0.03450074
0.69116676 0.15188754 -0.031202545
0.66859728 0.17276414 -0.040401507
0.67760479 0.17202467 -0.03283852
0.65755558 0.19056924 -0.043744132
0.66711855 0.18698905 -0.039689135
0.67535245 0.18735082 -0.032444678
0.65497065 0.20421027 -0.042913884
0.66685295 0.2019951 -0.038125575
0.678258 0.20240194 -0.032496832
0.64399999 0.21886055 -0.044400912
0.65211731 0.2176071 -0.041334845
0.66627055 0.21751615 -0.034640986
0.67855185 0.21511158 -0.03111417
0.59662312 0.23730387 -0.034347296
0.60591644 0.23421535 -0.038401529
0.62138718 0.23282371 -0.037352137
0.63757569 0.23425095 -0.038154785
0.65138012 0.23164488 -0.038310815
0.6656419 0.22995465 -0.032851726
0.59472853 0.24732144 -0.03687527
0.60049993 0.24089928 -0.043581713
0.59392363 0.26240844 -0.037184734
0.59544033 0.27576807 -0.036573298
0.60130429 0.28227225 -0.041541699
0.6074872 0.28940597 -0.040763259
0.61766666 0.29795423 -0.040093243
0.62543476 0.30573446 -0.041095939
0.63402164 0.31123909 -0.038009204
0.62799996 0.31932247 -0.044311013
0.63729125 0.32095721 -0.039436985
0.64906889 0.32456523 -0.033567142
0.64299995 0.33058119 -0.037588682
0.65352774 0.33332345 -0.032803975
0.65999997 0.33932129 -0.030596044
0.77497846 -0.39542991 -0.02259502
0.77512532 -0.38454461 -0.025163682
0.78414446 -0.3796615 -0.021112103
0.78724098 -0.36916706 -0.024817277
0.79115552 -0.35257888 -0.026772542
0.78726923 -0.33624178 -0.027359614
0.77568752 -0.32023442 -0.023964146
0.78133321 -0.32663482 -0.022195484
0.76919776 -0.3078115 -0.024047669
0.764 -0.29699087 -0.029253947
0.77059448 -0.29195642 -0.024545085
0.78199995 -0.28758174 -0.019849621
0.764 -0.27048454 -0.029253948
0.77277994 -0.27725127 -0.02469852
0.78033328 -0.27710766 -0.019178083
0.76132554 -0.25933772 -0.025718031
0.76813442 -0.26472941 -0.022136703
0.74775004 -0.24256128 -0.029385395
0.75566953 -0.24708487 -0.022470577
0.74811113 -0.23467755 -0.029248973
0.75478303 -0.2328575 -0.023185566
0.74736845 -0.21499322 -0.027663415
0.7516191 -0.22029942 -0.02525525
0.74618876 -0.20310761 -0.027773488
0.75620013 -0.19980232 -0.021617109
0.74561107 -0.18717319 -0.028547635
0.75645661 -0.1875257 -0.021122795
0.74591076 -0.1720821 -0.027481103
0.75248414 -0.17239761 -0.020049049
0.74555552 -0.15848589 -0.027673509
0.75341535 -0.15705532 -0.020226041
0.74556249 -0.14183719 -0.027791588
0.75539118 -0.14300828 -0.020370217
0.74377459 -0.12705949 -0.026458789
0.75436705 -0.12844336 -0.019265704
0.73159999 -0.11097356 -0.028129995
0.74180365 -0.11241059 -0.022101356
0.75153846 -0.11765165 -0.01683625
0.73122704 -0.096877076 -0.027648328
0.73882127 -0.097417101 -0.020499658
0.73040807 -0.082542755 -0.027410779
0.73966682 -0.082501963 -0.020019542
0.72859091 -0.066753633 -0.026572013
0.73941225 -0.067932084 -0.019276068
0.72706741 -0.052541573 -0.026574662
0.74005669 -0.052591443 -0.01881583
0.72866672 -0.036955819 -0.026795268
0.74188083 -0.038298361 -0.020260315
0.75092858 -0.034841713 -0.015944852
0.71899998 -0.01844468 -0.02927096
0.72701526 -0.02354162 -0.026740678
0.74248189 -0.022599177 -0.021235149
0.75282925 -0.022138108 -0.016796723
0.71693933 -0.006913729 -0.028748004
0.72682744 -0.0066489042 -0.024807258
0.74142468 -0.007674681 -0.019581486
0.75200003 -0.011491623 -0.016487194
0.71521842 0.0084592644 -0.027696239
0.72629237 0.006745758 -0.022932917
0.73738962 0.0077956775 -0.017463356
0.7130394 0.023003127 -0.026749508
0.72731823 0.023311915 -0.020708146
0.73731601 0.020249551 -0.016741263
0.70237035 0.03984477 -0.028278565
0.71185058 0.037094522 -0.024233412
0.72646874 0.036689594 -0.017975692
0.70245457 0.050458163 -0.028390501
0.71218204 0.052788656 -0.024201296
0.72442591 0.05278914 -0.01797205
0.71218288 0.067676768 -0.026144974
0.72562504 0.067542456 -0.018630723
0.70253342 0.084080584 -0.028259521
0.71142358 0.082806401 -0.023893202
0.72539693 0.080897547 -0.018041963
0.70140421 0.098090857 -0.027575718
0.71109027 0.096999809 -0.022160167
0.72185707 0.097317353 -0.017089957
0.70126671 0.11037283 -0.028018218
0.71160924 0.11293323 -0.023300651
0.72353482 0.11317012 -0.017494664
0.70145732 0.12933086 -0.027955784
0.71124494 0.12707978 -0.023203541
0.72379047 0.12716566 -0.017419398
0.70107549 0.1425229 -0.027417131
0.71217322 0.14298241 -0.021011231
0.72166663 0.13966866 -0.01657032
0.68799996 0.16275822 -0.029673988
0.69768929 0.15815514 -0.026190611
0.71016359 0.15661584 -0.019185076
0.68438464 0.17461994 -0.027355699
0.69613338 0.17206772 -0.02318727
0.70893103 0.17207274 -0.017752234
0.68112898 0.18705279 -0.025214456
0.69651741 0.18777198 -0.018717719
0.7069546 0.18460794 -0.016389051
0.68437493 0.20180105 -0.027205804
0.6950897 0.20377588 -0.021121662
0.70561534 0.20222583 -0.016203083
0.67399997 0.22416162 -0.029070154
0.6842649 0.21865511 -0.027019264
0.69650888 0.21727343 -0.020189146
0.70499998 0.21683821 -0.016188949
0.59132427 0.23532476 -0.021888426
0.60653639 0.23339762 -0.02308755
0.6211282 0.23401581 -0.022972513
0.63728237 0.23447196 -0.022297455
0.65112066 0.23448046 -0.022324337
0.66875786 0.2344494 -0.023812288
0.68090671 0.23086868 -0.021860357
0.69526678 0.2284175 -0.017619573
0.58845359 0.24771474 -0.02274802
0.58333325 0.26363313 -0.016920328
0.58795691 0.26190811 -0.023474248
0.5838334 0.27174181 -0.016075598
0.59002936 0.27655286 -0.023105664
0.59677774 0.28595039 -0.02382097
0.60542858 0.29082528 -0.027234182
0.616 0.29731631 -0.029550172
0.62399995 0.30319142 -0.028423781
0.63549995 0.31031734 -0.028947214
0.64399999 0.31602675 -0.02985432
0.65315151 0.32309765 -0.027209299
0.66318744 0.32851422 -0.022236148
0.65828574 0.33419296 -0.029454486
0.6681391 0.33742777 -0.022301279
0.67499995 0.34431005 -0.016589124
0.67366666 0.34598511 -0.020540964
0.67566669 0.34683073 -0.017150037
0.7529999 -0.16998954 -0.014253898
0.7566154 -0.15797372 -0.014322334
0.75988227 -0.1414251 -0.013950831
0.75809079 -0.12771706 -0.014350267
0.75450003 -0.1179755 -0.014282292
0.74299997 -0.093396202 -0.014064604
0.74486667 -0.081327014 -0.013939458
0.74352765 -0.065867268 -0.012674418
0.74582052 -0.053919353 -0.012574285
0.75123078 -0.047477409 -0.011609526
0.74799997 -0.043329291 -0.014159253
0.75421733 -0.037331901 -0.012369113
0.76007694 -0.022558564 -0.012545027
0.76499999 -0.020036217 -0.0095439926
0.75761533 -0.010553278 -0.012598218
0.76499999 -0.014069629 -0.0095439926
0.74261892 0.0079978658 -0.012229932
0.74093848 0.02223064 -0.011632316
0.73075002 0.03886795 -0.013080361
0.73572725 0.033740219 -0.010419369
0.7301172 0.052506026 -0.011710041
0.73025954 0.066936091 -0.011695097
0.7316733 0.082890734 -0.012690123
0.73541039 0.08320836 -0.009174346
0.72866666 0.097575709 -0.010391227
0.73500001 0.090855032 -0.0067979963
0.72985446 0.11165614 -0.010434479
0.73558331 0.11763491 -0.0056163194
0.73127425 0.12739083 -0.012205425
0.73554569 0.1274579 -0.0066079358
0.7293871 0.14321624 -0.010731149
0.73500001 0.14185542 -0.0056121354
0.71777779 0.16053408 -0.01416621
0.72854733 0.15760572 -0.0079637077
0.73499995 0.15075085 -0.0032404081
0.71683764 0.17270716 -0.01356764
0.72890925 0.17254786 -0.006211428
0.71484524 0.18907166 -0.011931648
0.72438979 0.18695872 -0.0059479652
0.7151171 0.20196123 -0.010849967
0.72132361 0.20311727 -0.003537464
0.71375042 0.21860808 -0.009669628
0.72207141 0.21555156 -0.0037209704
0.58351642 0.23711792 -0.0061552073
0.58996439 0.23243213 -0.0079798168
0.6062113 0.23098923 -0.0079378663
0.62073684 0.2320859 -0.0081464248
0.63639981 0.23417939 -0.0083669778
0.65196753 0.23543921 -0.00801621
0.6676181 0.23677038 -0.0077614272
0.6818307 0.23682147 -0.0082950657
0.69715959 0.23488909 -0.008468926
0.71108991 0.23063838 -0.0061977468
0.58075154 0.24737068 -0.0058459379
0.58615029 0.24900077 -0.013035581
0.57895029 0.26207596 -0.0077333893
0.58599997 0.25588652 -0.014874547
0.58041036 0.27489367 -0.0072781346
0.58568752 0.27931952 -0.013981452
0.67374986 0.33619827 -0.011257713
0.67679608 0.34192929 -0.010395743
0.68156004 0.34849036 -0.0071631782
0.69 0.35418829 -0.0013721359
0.72666663 0.19242494 0.00031358385
0.72491664 0.20249304 0.00031282823
0.7171666 0.22405005 0.00088708702
0.72475004 0.21646854 0.0003127557
0.57845628 0.23400517 0.0077934298
0.59124994 0.22874811 0.0068878653
0.60697103 0.22921941 0.0079754554
0.62236845 0.23109309 0.0063697323
0.63748395 0.23201922 0.0094924578
0.64986056 0.23411347 0.0046110419
0.66664284 0.23638608 0.0023572352
0.68257147 0.2382565 0.0017873116
0.69730437 0.23823699 0.0020116263
0.71284848 0.23126431 0.0012842269
0.57345194 0.24730004 0.0075918878
0.5670929 0.26587024 0.011503055
0.57280195 0.26123759 0.0060960166
0.56677777 0.27223745 0.010959436
0.5731321 0.27600908 0.0049805939
0.58299994 0.28703332 0.0077765696
0.59037489 0.29197815 0.0089484723
0.69371426 0.35569605 0.0011003038
0.5674364 0.23534925 0.025562784
0.57465744 0.23078661 0.021311643
0.59071243 0.22759531 0.022110829
0.60718042 0.2288719 0.022133691
0.62401605 0.23077278 0.022628076
0.63367236 0.23006566 0.02212375
0.56782126 0.24831693 0.023910612
0.57028288 0.24476786 0.0171718
0.56366014 0.2630752 0.023100914
0.56999999 0.25809783 0.016799657
0.56042856 0.27107063 0.023722168
0.616 0.30526853 0.015670752
0.56720585 0.22414917 0.040964391
0.57714468 0.22400615 0.038978089
0.58787501 0.22480603 0.040099304
0.56405634 0.232618 0.037792701
0.57455879 0.22624905 0.031789105
0.5937407 0.22615027 0.036060236
0.60828567 0.22859333 0.038506161
0.62288415 0.2307746 0.037545983
0.63479978 0.2313758 0.035885748
0.56064147 0.24759369 0.037516911
0.55373651 0.26371476 0.043196451
0.55734092 0.26150426 0.035723839
0.55389285 0.2745859 0.044060193
0.55577493 0.27330288 0.038467992
0.58499998 0.28943402 0.031399511
0.56652945 0.22380918 0.050034419
0.57713783 0.22372894 0.050217714
0.58769995 0.22457342 0.050028902
0.55400002 0.23833732 0.059232138
0.56029016 0.23212858 0.052648488
0.57714999 0.22612004 0.057839014
0.59336573 0.22647138 0.053556386
0.60784853 0.22799651 0.052621558
0.6188103 0.22797698 0.052283242
0.55310035 0.250539 0.055295013
0.55631959 0.24552393 0.050304636
0.55214518 0.26214391 0.052704394
