# .PCD v0.7 - Point Cloud Data file format
VERSION 0.7
FIELDS x y z
SIZE 4 4 4
TYPE F F F
COUNT 1 1 1
WIDTH 1186
HEIGHT 1
VIEWPOINT 0 0 0 1 0 0 0
POINTS 1186
DATA ascii
0.3832292 -0.19662622 -0.1366414
0.37052226 -0.18532886 -0.14171764
0.38071355 -0.18908025 -0.13759188
0.36932176 -0.17296657 -0.14145434
0.37851164 -0.17277648 -0.13712773
0.36799979 -0.15737507 -0.14012963
0.37802485 -0.1570144 -0.13652302
0.36704203 -0.14153115 -0.13934535
0.3766579 -0.1460301 -0.13641703
0.36715177 -0.12756421 -0.13899253
0.37542856 -0.12642574 -0.13526013
0.35900003 -0.11435458 -0.14117418
0.36381972 -0.11274937 -0.13902366
0.38066667 -0.11542275 -0.13536298
0.35887498 -0.090860911 -0.14069061
0.36353692 -0.097641759 -0.1384287
0.35791168 -0.082472138 -0.13949159
0.3637569 -0.082610056 -0.13694769
0.35824141 -0.066722214 -0.14015737
0.36305451 -0.067584015 -0.13739766
0.35820651 -0.053259458 -0.13945946
0.36166656 -0.052881915 -0.13689944
0.3562648 -0.037244767 -0.13785666
0.36298257 -0.0392478 -0.13598317
0.35572973 -0.022453684 -0.1370528
0.36106893 -0.024383482 -0.13549846
0.35436305 -0.0078114029 -0.1367956
0.36078569 -0.0077161649 -0.13538955
0.35540232 0.0075076376 -0.13683209
0.35239613 0.022575321 -0.1364236
0.35170388 0.036939628 -0.13627239
0.34854233 0.0517052 -0.13588527
0.34740484 0.067750245 -0.13567713
0.34399998 0.082798667 -0.13527553
0.34711114 0.077729583 -0.13551636
0.34399998 0.093037292 -0.13527553
0.41695666 -0.21297421 -0.12257511
0.3872543 -0.19768481 -0.13353688
0.39721459 -0.1989913 -0.12913762
0.41185287 -0.20274024 -0.12303897
0.38695821 -0.18576251 -0.13362151
0.39698362 -0.18766825 -0.12855308
0.40851367 -0.18865867 -0.12182982
0.38513681 -0.17177102 -0.13260569
0.39747816 -0.1732045 -0.12662517
0.4071953 -0.17331479 -0.1215612
0.38481945 -0.15738238 -0.13191371
0.39690268 -0.15744427 -0.12483906
0.40576926 -0.16309987 -0.12068802
0.373 -0.13506547 -0.13464347
0.38331261 -0.14196828 -0.13159502
0.39663807 -0.14326058 -0.1243915
0.40643477 -0.13887036 -0.12086601
0.37345457 -0.12612993 -0.13453329
0.38202077 -0.12714644 -0.13160524
0.39640701 -0.12744701 -0.12537181
0.40624681 -0.12936938 -0.12108954
0.37049997 -0.11099689 -0.134386
0.38494688 -0.11225562 -0.13109352
0.39585394 -0.1123871 -0.12377177
0.40523082 -0.1083596 -0.12037699
0.36944935 -0.096804 -0.13365665
0.38200802 -0.096902996 -0.12979989
0.3962881 -0.097738571 -0.12291317
0.405 -0.10449946 -0.12038396
0.37080425 -0.082904711 -0.13311285
0.38188434 -0.08226072 -0.12736802
0.39703098 -0.084184483 -0.12193801
0.40533337 -0.08703427 -0.12026496
0.37099537 -0.067686185 -0.13355926
0.38291726 -0.067710169 -0.1271096
0.39151454 -0.067205042 -0.12122968
0.36840162 -0.052768536 -0.13286994
0.38167477 -0.052353211 -0.12616949
0.3912603 -0.052895274 -0.12077354
0.36939767 -0.037393641 -0.13197926
0.3821758 -0.037777323 -0.12457521
0.39000008 -0.035728861 -0.12032996
0.359 -0.01731988 -0.1348028
0.36762789 -0.021944767 -0.1314932
0.38256505 -0.022515347 -0.12454794
0.39000002 -0.023148205 -0.12032993
0.359 -0.00428537 -0.13480279
0.36660615 -0.0074815708 -0.13046952
0.38313174 -0.0073604239 -0.12355457
0.35851833 0.0094715711 -0.13396446
0.366451 0.0071151447 -0.1304647
0.38150734 0.0071250857 -0.12343937
0.35684595 0.022047151 -0.13326879
0.36595324 0.02302349 -0.12876481
0.38046443 0.021965278 -0.12309033
0.35668111 0.037918262 -0.13346703
0.36632463 0.037206966 -0.12787484
0.38170806 0.036984853 -0.12201412
0.3547841 0.053092878 -0.13223782
0.36544615 0.051620595 -0.12715583
0.37873325 0.053565245 -0.12261495
0.35350466 0.067832835 -0.13165702
0.36677822 0.067634329 -0.12522702
0.37743732 0.064720012 -0.12208201
0.34361103 0.087294087 -0.13478345
0.35288087 0.083063893 -0.13106816
0.36666903 0.082657643 -0.12385573
0.37526667 0.07751257 -0.12056713
0.34367642 0.099709384 -0.13447088
0.3518084 0.097424366 -0.13045953
0.36761627 0.097639725 -0.1237523
0.34268367 0.11359863 -0.13330708
0.35196635 0.11228453 -0.12929741
0.36396921 0.11241064 -0.12299522
0.34162551 0.12823011 -0.13273895
0.35144985 0.12763606 -0.12763061
0.36325157 0.12635416 -0.12214847
0.34186921 0.14236082 -0.13256449
0.35178125 0.14231981 -0.12755366
0.36399531 0.14327794 -0.12183072
0.34125042 0.15893584 -0.1313846
0.35134196 0.15753303 -0.12705821
0.3629587 0.15692587 -0.12219613
0.3399682 0.16921997 -0.13078338
0.35274911 0.17281725 -0.12519428
0.3612282 0.17166841 -0.12084726
0.35630003 0.18171529 -0.1229201
0.36078569 0.18219963 -0.12017188
0.44504353 -0.22793843 -0.10639916
0.41899997 -0.21358846 -0.11947521
0.42785263 -0.21574365 -0.11393723
0.43971026 -0.21718371 -0.10722873
0.41724995 -0.20171078 -0.11889405
0.42677552 -0.20268871 -0.1139095
0.44049776 -0.20218261 -0.10763016
0.4158093 -0.18722002 -0.11782137
0.42605966 -0.18752825 -0.11207607
0.43895131 -0.18902674 -0.10703942
0.41435108 -0.17272989 -0.11713994
0.42690757 -0.17208761 -0.11095964
0.43622276 -0.17250717 -0.10607641
0.40376186 -0.15430358 -0.11950397
0.41130725 -0.15669094 -0.11638814
0.42682415 -0.1574363 -0.10979556
0.43759727 -0.15849183 -0.10576148
0.40347049 -0.14674927 -0.11941217
0.41249311 -0.14307955 -0.11627016
0.42574406 -0.14229277 -0.10897987
0.43535289 -0.14425768 -0.10521454
0.40399998 -0.12021366 -0.1197608
0.41255358 -0.12728457 -0.1156717
0.4260408 -0.12742653 -0.10823261
0.40399995 -0.11421592 -0.11976079
0.41146603 -0.11217075 -0.11560357
0.42572108 -0.11285298 -0.10824282
0.4036977 -0.095747612 -0.11915597
0.41299084 -0.09776599 -0.11450989
0.42354926 -0.098131642 -0.10743818
0.39983857 -0.077475309 -0.11839589
0.41141546 -0.082935549 -0.11358573
0.42263499 -0.082206033 -0.10695797
0.39894992 -0.067320406 -0.11780384
0.41148654 -0.067253262 -0.11162189
0.42297739 -0.069358014 -0.10660452
0.39901137 -0.052509956 -0.11784516
0.41115597 -0.052364282 -0.1104368
0.42087498 -0.05901593 -0.10557903
0.38900003 -0.039795913 -0.1197076
0.39769351 -0.03674341 -0.11678898
0.41287163 -0.037493866 -0.10964944
0.389 -0.021877302 -0.1197076
0.39677072 -0.02301606 -0.11611185
0.41198263 -0.022615563 -0.10900673
0.38899997 -0.0083881654 -0.11959937
0.39633009 -0.0074387947 -0.11537519
0.40987965 -0.0075353663 -0.10830711
0.38853332 0.010196342 -0.11921521
0.39680526 0.0074370848 -0.11465602
0.41083556 0.0073312861 -0.10763847
0.38684139 0.022690672 -0.11845234
0.39665237 0.02261338 -0.11391034
0.41018355 0.022245258 -0.10798982
0.38736877 0.03867333 -0.11830749
0.39636505 0.037155885 -0.11294273
0.40822497 0.037312351 -0.10705601
0.38538048 0.052352469 -0.11708689
0.39660355 0.052793968 -0.11108532
0.40726572 0.051847395 -0.10641596
0.38369569 0.068345606 -0.11690206
0.39640149 0.067620687 -0.11013038
0.40637261 0.065679967 -0.10585564
0.37399989 0.085157819 -0.1196173
0.38148993 0.081964411 -0.11630426
0.39682081 0.082474425 -0.109197
0.40526929 0.081060193 -0.10532424
0.37340003 0.098884389 -0.11941434
0.38265833 0.097576924 -0.1164045
0.39553875 0.097764701 -0.10927494
0.37339514 0.11289676 -0.11882343
0.382633 0.11334016 -0.1146089
0.39343104 0.11168783 -0.10820855
0.37022176 0.12867557 -0.11813135
0.38239396 0.12731171 -0.11369183
0.39271566 0.12746634 -0.10760493
0.37081864 0.14249761 -0.11752605
0.38292912 0.14250478 -0.11123981
0.39104655 0.14219013 -0.10593608
0.37072533 0.15712021 -0.11741839
0.38133195 0.1573054 -0.11052489
0.39107463 0.15986542 -0.10592622
0.36793464 0.17285414 -0.11615262
0.38188192 0.17078282 -0.10972914
0.39164487 0.17224552 -0.10580222
0.36825386 0.18470614 -0.11535065
0.38228327 0.18757147 -0.10859688
0.39139277 0.18410119 -0.10551231
0.38564992 0.19683674 -0.10646804
0.47365713 -0.24261107 -0.092823364
0.47999999 -0.24662009 -0.090402491
0.44844443 -0.22827597 -0.1043962
0.45739079 -0.23113728 -0.10035881
0.47108921 -0.23298511 -0.093992367
0.44743749 -0.21604545 -0.10372298
0.45675367 -0.21717627 -0.099169597
0.47038454 -0.21708114 -0.092769183
0.44766286 -0.20296703 -0.10380304
0.4560464 -0.20176755 -0.098710902
0.47070664 -0.20350644 -0.092488669
0.44500956 -0.18588188 -0.10320141
0.45616314 -0.1875619 -0.097668909
0.46777672 -0.18741371 -0.091898426
0.44418257 -0.17211755 -0.1025682
0.45684582 -0.17197762 -0.095760174
0.46645233 -0.17607537 -0.09141542
0.44415453 -0.15704362 -0.10175962
0.4551262 -0.15832959 -0.094535448
0.43399999 -0.13649394 -0.1044962
0.4424161 -0.14232834 -0.10026309
0.45214358 -0.14323284 -0.093128324
0.43376192 -0.12766813 -0.10443886
0.44244102 -0.12737963 -0.097778901
0.45056257 -0.13384178 -0.091445573
0.43304834 -0.11215592 -0.10402959
0.44188312 -0.11259271 -0.096965462
0.43095532 -0.096211247 -0.10326499
0.44141895 -0.097567797 -0.096253283
0.42997587 -0.082918815 -0.10322442
0.44152033 -0.08257433 -0.097322941
0.4533616 -0.082376726 -0.091646418
0.42952129 -0.066331081 -0.10301715
0.44153842 -0.06772837 -0.096466117
0.45194992 -0.067860633 -0.090901375
0.41837135 -0.050573334 -0.10436779
0.42694125 -0.052540366 -0.10166947
0.44158137 -0.052393589 -0.094932579
0.45247826 -0.054322347 -0.090582587
0.42706233 -0.037109248 -0.10165239
0.4405334 -0.037621133 -0.094462767
0.45000002 -0.042405616 -0.090923682
0.41787878 -0.017618636 -0.10385159
0.42584047 -0.023934215 -0.10120374
0.44083253 -0.02212132 -0.093946561
0.41677207 -0.0071440893 -0.10334209
0.42729446 -0.0074083693 -0.099337973
0.43914187 -0.0072979946 -0.093533717
0.41759971 0.00741588 -0.10371222
0.42574927 0.0079466598 -0.099177055
0.43966717 0.0073321783 -0.092919528
0.41694707 0.022645626 -0.10342955
0.42695725 0.022459667 -0.098503388
0.4387241 0.022088619 -0.092717186
0.4152894 0.037954573 -0.10262144
0.4269968 0.037160452 -0.097516052
0.43834513 0.037798867 -0.092160508
0.41458738 0.051020183 -0.10257537
0.42688471 0.053020641 -0.095935829
0.43649995 0.049479958 -0.090995252
0.4127661 0.068596959 -0.10222916
0.42716002 0.067105904 -0.095652521
0.43548286 0.068349466 -0.090594701
0.4035714 0.088261098 -0.10447122
0.41144398 0.08236941 -0.10042118
0.42601338 0.08271347 -0.093270496
0.43586665 0.077367216 -0.090481892
0.4018915 0.098113693 -0.10367545
0.41092733 0.097853824 -0.099346131
0.42444128 0.097169749 -0.093398973
0.40132633 0.11279827 -0.1031169
0.41101065 0.11259744 -0.097862311
0.42709285 0.11249175 -0.092659719
0.43549994 0.11479802 -0.090276904
0.3997699 0.12733816 -0.10278572
0.41028935 0.12704325 -0.09731596
0.42621222 0.12738647 -0.092459321
0.39878452 0.14300334 -0.10266887
0.41189367 0.1428645 -0.096551798
0.42448097 0.14170699 -0.091564998
0.43533334 0.14139079 -0.090418562
0.39773619 0.15713397 -0.10214212
0.41141194 0.15708686 -0.095985815
0.42201743 0.15746462 -0.091332138
0.3978878 0.1723115 -0.10237051
0.41115722 0.17242703 -0.095791824
0.42171887 0.17216642 -0.090980589
0.38857144 0.19269654 -0.1043053
0.39875618 0.18811691 -0.10190973
0.41037366 0.18739268 -0.094728611
0.42157498 0.18648253 -0.090926163
0.38857141 0.19731064 -0.10426047
0.39830226 0.20007509 -0.099470384
0.40867826 0.20163691 -0.093261987
0.41072729 0.21080236 -0.091209032
0.50353998 -0.25830749 -0.077424958
0.47833332 -0.24177608 -0.089059502
0.48709244 -0.2458289 -0.084081911
0.49796236 -0.24807498 -0.077696875
0.47743976 -0.23267411 -0.088402905
0.48704085 -0.23239902 -0.082948975
0.49865347 -0.23199396 -0.07691139
0.47705269 -0.2200232 -0.089178011
0.48631805 -0.21735691 -0.084376968
0.4990322 -0.21765791 -0.077317074
0.47661641 -0.20093805 -0.08791171
0.48688099 -0.20257463 -0.081928097
0.49680007 -0.20436075 -0.076478474
0.47396955 -0.18659876 -0.086205751
0.48672318 -0.18766265 -0.0792934
0.49584207 -0.19125567 -0.075449206
0.46383327 -0.16627274 -0.088854134
0.47071332 -0.1721109 -0.085473903
0.487351 -0.17435437 -0.078843936
0.49620005 -0.17057356 -0.075786851
0.46051988 -0.15671048 -0.08585491
0.46808815 -0.16177692 -0.082164533
0.48499998 -0.16270782 -0.077650294
0.44540092 -0.14068592 -0.080291599
0.45191842 -0.14355649 -0.087125503
0.44385475 -0.12710705 -0.082310013
0.45031247 -0.13335913 -0.088625625
0.4337059 -0.10797555 -0.075674102
0.4408389 -0.11268394 -0.082949936
0.4336296 -0.10150648 -0.07612443
0.44155478 -0.09711469 -0.082748324
0.45208898 -0.090812199 -0.08619684
0.44622725 -0.089372694 -0.076743342
0.45980418 -0.084288269 -0.085240714
0.47060156 -0.081225328 -0.080266878
0.48054537 -0.07771077 -0.075738035
0.46047992 -0.067266449 -0.087503977
0.47169724 -0.067426525 -0.080735639
0.48071417 -0.068445161 -0.075736366
0.449 -0.045934096 -0.089634985
0.45999479 -0.052480485 -0.086620778
0.47128439 -0.053030789 -0.079643257
0.48094115 -0.049704675 -0.075607896
0.44865218 -0.036519654 -0.089313582
0.45572054 -0.0383734 -0.086346865
0.47170359 -0.037311848 -0.079802945
0.48048148 -0.039222781 -0.075706571
0.44822586 -0.021959707 -0.089316443
0.45682517 -0.022252871 -0.084402561
0.47113657 -0.022649972 -0.077571675
0.47999999 -0.029354032 -0.075688116
0.44634905 -0.004360381 -0.088850796
0.45749477 -0.0076467367 -0.084012859
0.46894169 -0.0082499553 -0.077126391
0.44667754 0.007508677 -0.088304117
0.45745343 0.0072296383 -0.083836928
0.470447 0.0073854928 -0.077999681
0.44588548 0.022862999 -0.089068428
0.45653984 0.022263791 -0.084193558
0.47284266 0.02280744 -0.077954099
0.48022223 0.023371069 -0.075550705
0.44537228 0.038401462 -0.088325478
0.45761999 0.037279941 -0.082300574
0.4674606 0.036031052 -0.076520957
0.44221193 0.053141423 -0.086394742
0.45760921 0.0524012 -0.080143161
0.467282 0.052492924 -0.076290496
0.44249052 0.067459054 -0.086190626
0.45789516 0.067773134 -0.079253808
0.46659988 0.066455275 -0.076121755
0.43283337 0.086514272 -0.089223765
0.44148391 0.082545534 -0.085479163
0.45639929 0.082694456 -0.078399263
0.43127987 0.097152948 -0.088848725
0.44227728 0.097568363 -0.083221287
0.45410484 0.09706147 -0.077236064
0.43199998 0.10694019 -0.089259423
0.44229424 0.11232867 -0.08455015
0.4532907 0.11261777 -0.077369519
0.43315771 0.1283882 -0.088862069
0.44136792 0.1273447 -0.083254039
0.45312509 0.12682661 -0.076464429
0.43067163 0.14652246 -0.088666543
0.44173029 0.14255907 -0.082967408
0.4514845 0.14111312 -0.076061107
0.4290145 0.1582551 -0.087735288
0.44109213 0.15736586 -0.081552804
0.45052329 0.15725836 -0.076205634
0.42855898 0.17256741 -0.086375609
0.44154531 0.17291287 -0.079270847
0.45081073 0.16922778 -0.075920098
0.41599998 0.19359811 -0.089354299
0.4277752 0.18803194 -0.08575844
0.43951413 0.18696831 -0.078106232
0.415263 0.20280597 -0.088306531
0.42487454 0.20182836 -0.084078461
0.44054547 0.2027995 -0.078529932
0.41580433 0.21206613 -0.087668024
0.42823023 0.21570952 -0.082118824
0.43962279 0.2163894 -0.077397116
0.43899998 0.22552256 -0.075419441
0.52399999 -0.27091804 -0.06825383
0.53200001 -0.27225256 -0.065139741
0.54333961 -0.27568075 -0.061594766
0.50729996 -0.25778249 -0.074589685
0.5183444 -0.26173368 -0.0711262
0.53220326 -0.26308119 -0.065189041
0.54242212 -0.26416379 -0.061355039
0.50424069 -0.24504736 -0.073598891
0.51839626 -0.24702632 -0.069316432
0.53050429 -0.24775235 -0.063007884
0.50585705 -0.23357181 -0.07379467
0.51779294 -0.23216791 -0.068475835
0.52891552 -0.23305994 -0.062249724
0.50525534 -0.21640967 -0.073161326
0.51750547 -0.21798141 -0.06774088
0.52861887 -0.2177432 -0.06200685
0.50405234 -0.20216857 -0.072298877
0.51646191 -0.20199877 -0.065755501
0.52769023 -0.20356902 -0.061049331
0.49400002 -0.18286607 -0.07470756
0.50389576 -0.18745935 -0.072560832
0.51704401 -0.18748136 -0.065566607
0.52631819 -0.18992698 -0.0604106
0.49400002 -0.17808311 -0.07470756
0.50337839 -0.17552249 -0.073448218
0.51451349 -0.17749862 -0.068063915
0.43399999 -0.13561852 -0.060557134
0.43948448 -0.14161108 -0.067255206
0.43237442 -0.1253759 -0.063410744
0.43677875 -0.12859318 -0.070185967
0.430612 -0.11178764 -0.066938587
0.43517664 -0.11714011 -0.073514543
0.43136975 -0.10036959 -0.067163423
0.43716237 -0.093368374 -0.069716327
0.44332361 -0.088509299 -0.069536485
0.46133333 -0.087023638 -0.072373599
0.47679308 -0.085252069 -0.073428482
0.48660287 -0.080839224 -0.067713179
0.49951014 -0.076691322 -0.063099615
0.48943871 -0.067361467 -0.071840234
0.50195372 -0.067714952 -0.064452887
0.48768672 -0.052387487 -0.071409561
0.50097609 -0.052441183 -0.063869126
0.48644471 -0.037796527 -0.072155498
0.50065678 -0.037622549 -0.064658016
0.50999999 -0.033246104 -0.061081793
0.47780001 -0.020785393 -0.074323155
0.48740327 -0.022453856 -0.070530958
0.5002774 -0.023010431 -0.06323567
0.47647467 -0.0064577111 -0.073591731
0.4875789 -0.0071622031 -0.068693742
0.50040585 -0.0084084822 -0.062627725
0.47711006 0.0066355029 -0.073342875
0.48631519 0.0077142892 -0.067921862
0.49866045 0.0074260011 -0.062041912
0.47852948 0.022771383 -0.074229643
0.48630169 0.022753732 -0.068645403
0.49890587 0.02135749 -0.061589353
0.47367695 0.03847808 -0.072253346
0.48692018 0.036976621 -0.065909252
0.49616221 0.036571153 -0.060927246
0.47367153 0.052487791 -0.071641482
0.48705286 0.051920097 -0.065368325
0.49769235 0.053681858 -0.061377838
0.47235346 0.067233354 -0.072360411
0.48596486 0.06815125 -0.06631723
0.49794999 0.065757506 -0.06141651
0.46197733 0.085733615 -0.074130997
0.47169515 0.082180627 -0.071169332
0.48780033 0.082717694 -0.065283716
0.49625483 0.080542475 -0.061042104
0.46068761 0.097275011 -0.073754378
0.47247273 0.098337539 -0.070051149
0.4848012 0.096656457 -0.063948117
0.495 0.091142036 -0.060483232
0.46087158 0.11257639 -0.073440552
0.47205862 0.1123611 -0.067400686
0.48144123 0.11179968 -0.061372552
0.45954466 0.12834194 -0.072773106
0.47198847 0.12740794 -0.065897934
0.48042858 0.12207127 -0.060750894
0.45758769 0.14291583 -0.072585993
0.4685995 0.14237602 -0.065302245
0.45852903 0.15736282 -0.071911432
0.46757576 0.15766491 -0.064641424
0.4484615 0.17823662 -0.07438767
0.45798463 0.17268899 -0.070712112
0.46691969 0.1720427 -0.06339924
0.44715643 0.18741348 -0.073610507
0.45682544 0.18719605 -0.069408931
0.47056818 0.18782115 -0.063161202
0.44729766 0.20192321 -0.073454238
0.45738548 0.2023759 -0.069398083
0.46939164 0.20243429 -0.063242815
0.447225 0.21808182 -0.073999636
0.45711082 0.21855153 -0.069888167
0.46879047 0.21743943 -0.063618995
0.44674367 0.22770165 -0.073043264
0.45811737 0.23064284 -0.066985376
0.46652362 0.23036054 -0.061940491
0.55360001 -0.28586423 -0.056745779
0.56514704 -0.2890906 -0.052011661
0.5724588 -0.29056573 -0.046702586
0.55072945 -0.27746874 -0.058139779
0.56263328 -0.27751896 -0.052266058
0.57170677 -0.2786434 -0.046506915
0.5493474 -0.26181975 -0.056791641
0.56117725 -0.26282185 -0.049980342
0.57018191 -0.26685756 -0.045918267
0.53655165 -0.24427165 -0.058931686
0.54708117 -0.24731465 -0.054212719
0.55894369 -0.24814814 -0.047333255
0.5357641 -0.23196881 -0.058407255
0.54634595 -0.23324458 -0.052915424
0.55828846 -0.23253423 -0.046934519
0.53576684 -0.21756001 -0.058115553
0.5467903 -0.2172073 -0.051562257
0.55769223 -0.21964821 -0.046199787
0.53499085 -0.20202306 -0.057509493
0.54610473 -0.20282091 -0.050170366
0.55499989 -0.20634227 -0.045876056
0.53364283 -0.18931705 -0.055885904
0.54266667 -0.19194525 -0.049689434
0.43399999 -0.15050071 -0.047778051
0.43145955 -0.14087602 -0.050138578
0.43699169 -0.14464773 -0.056314554
0.42844751 -0.12764755 -0.05229697
0.42424098 -0.11233894 -0.052506134
0.42644238 -0.099262357 -0.051532436
0.43659151 -0.091446795 -0.049299531
0.44397497 -0.088756174 -0.049918596
0.45566651 -0.087039605 -0.050857857
0.47240466 -0.085394919 -0.05162137
0.48673719 -0.08179605 -0.053051498
0.50144756 -0.077909544 -0.052832264
0.51124251 -0.075700365 -0.051518019
0.50774992 -0.07468117 -0.058968771
0.51639223 -0.068656497 -0.054319087
0.53070098 -0.065838158 -0.047766689
0.50799996 -0.051189613 -0.059388846
0.51736313 -0.053007104 -0.056364503
0.53086478 -0.052685369 -0.049586333
0.50826311 -0.039734289 -0.059384365
0.51750982 -0.036932252 -0.056462202
0.53042936 -0.038185414 -0.049739622
0.54099995 -0.033957444 -0.04515525
0.5072031 -0.021670386 -0.058405198
0.51675737 -0.021620018 -0.053703584
0.52864975 -0.02316175 -0.047572128
0.5065273 -0.0051476886 -0.058516413
0.51719928 -0.0077409744 -0.053404156
0.52642232 -0.008051089 -0.046823014
0.50566268 0.007471412 -0.056861486
0.51656401 0.0078190239 -0.050496452
0.52690327 0.0068193558 -0.046019092
0.50645471 0.022571484 -0.058428824
0.51536167 0.021819424 -0.052416068
0.52786189 0.024211343 -0.046272006
0.50260466 0.037681945 -0.057173386
0.51813972 0.037673909 -0.051509295
0.5277341 0.036710694 -0.046870392
0.50459683 0.052032426 -0.057714831
0.51600015 0.053155649 -0.050845299
0.52572221 0.049287919 -0.045811336
0.50546521 0.067549072 -0.055702087
0.51287472 0.06628155 -0.048806395
0.50325471 0.082442045 -0.056183435
0.51398319 0.082439534 -0.048747897
0.49081436 0.10025409 -0.057826765
0.50167292 0.096875593 -0.053950842
0.51412398 0.095800281 -0.047982585
0.47322226 0.11841459 -0.046368461
0.48839778 0.11371488 -0.054311149
0.50249022 0.10961832 -0.049334265
0.51216209 0.10958673 -0.046007905
0.44834781 0.13270728 -0.046197318
0.45815602 0.12922396 -0.049481463
0.47164211 0.12665005 -0.054369316
0.48279181 0.12192243 -0.056317378
0.44685608 0.14275564 -0.047566794
0.45647579 0.1419567 -0.05453917
0.46643478 0.1393673 -0.059087113
0.44671923 0.15281546 -0.047379088
0.45707121 0.15884708 -0.052962098
0.46540627 0.15816283 -0.059448488
0.46009216 0.16788201 -0.050394908
0.46922621 0.17429173 -0.055465229
0.47557592 0.18696457 -0.05553712
0.48347986 0.19106098 -0.049321212
0.47563425 0.20223217 -0.057922911
0.48657033 0.20266078 -0.050960019
0.49568745 0.20645264 -0.04577148
0.47547507 0.21762462 -0.058320213
0.48702851 0.21766491 -0.052626111
0.49623978 0.2180662 -0.046627097
0.47135249 0.2322538 -0.057433579
0.48655885 0.23182559 -0.052096009
0.49716464 0.23302911 -0.047046993
0.47383788 0.24253467 -0.055629712
0.48745757 0.24580602 -0.050148576
0.49847621 0.2447439 -0.046811655
0.58166665 -0.30073285 -0.040102746
0.59288877 -0.30380791 -0.034697857
0.60299999 -0.30865708 -0.031161835
0.57950401 -0.29194164 -0.041103847
0.59041262 -0.2927525 -0.033909533
0.57954299 -0.2777586 -0.040346857
0.5903365 -0.2771816 -0.03300257
0.56774992 -0.25746399 -0.044295646
0.57779002 -0.26338965 -0.040794171
0.59158611 -0.26292935 -0.033701643
0.60000002 -0.25986466 -0.030718714
0.56599993 -0.2467081 -0.04325901
0.57723635 -0.24740423 -0.03882641
0.59224164 -0.24781097 -0.033397175
0.6001538 -0.2483107 -0.030726593
0.56608337 -0.2322014 -0.042919006
0.57698303 -0.23316164 -0.038169667
0.59092003 -0.23309585 -0.032736361
0.56399089 -0.2166573 -0.041930001
0.57713956 -0.21687995 -0.035464954
0.58803326 -0.22061943 -0.031242551
0.56227475 -0.20533045 -0.042231333
0.57366657 -0.20718679 -0.036382716
0.42668754 -0.1507183 -0.033122886
0.42569917 -0.14186618 -0.03730059
0.41732484 -0.12565172 -0.032613475
0.42327806 -0.12797517 -0.039586402
0.4164131 -0.1112811 -0.035664931
0.42096072 -0.11484041 -0.042009555
0.41758382 -0.10298026 -0.035332017
0.42629284 -0.096977197 -0.037875731
0.43613648 -0.090929769 -0.037808836
0.44133005 -0.088583097 -0.037556328
0.45857036 -0.087204449 -0.037562899
0.47253415 -0.08442723 -0.037308406
0.48632547 -0.079943463 -0.037169058
0.50067466 -0.076760553 -0.039945845
0.51574999 -0.07533782 -0.03690806
0.50742853 -0.074838713 -0.03937111
0.51809096 -0.074352846 -0.038732216
0.53441727 -0.070061326 -0.04133071
0.54599988 -0.067156963 -0.038300045
0.56064105 -0.065159284 -0.032892331
0.53717309 -0.051152676 -0.043800704
0.54730928 -0.052967738 -0.039341722
0.56129056 -0.052499618 -0.03326007
0.53811985 -0.039176404 -0.044289052
0.54670721 -0.037094925 -0.039141361
0.55948126 -0.037903968 -0.032348372
0.53521258 -0.021119939 -0.042789262
0.54735142 -0.023093427 -0.037364881
0.55820304 -0.022670535 -0.031797215
0.53325129 -0.0071911747 -0.041760981
0.54764402 -0.0075102779 -0.035525117
0.55723214 -0.0083598774 -0.031513043
0.53544438 0.0065463395 -0.041765172
0.54707491 0.0080596311 -0.034959372
0.55499989 0.0063610943 -0.030205727
0.53473604 0.023119437 -0.04198214
0.54655606 0.022023296 -0.034878705
0.53446072 0.037757456 -0.041535124
0.54621929 0.037549134 -0.034339979
0.52400005 0.056317143 -0.044581763
0.53270304 0.052153364 -0.040141672
0.5446409 0.051396511 -0.0328613
0.5219999 0.066631466 -0.0444116
0.53265643 0.067298003 -0.039685678
0.54333729 0.067217782 -0.03235326
0.52101284 0.083905272 -0.043417357
0.53186369 0.08253026 -0.038387556
0.54437208 0.081715234 -0.03263139
0.52040535 0.098020516 -0.042999763
0.53120148 0.097709566 -0.036977287
0.5431214 0.097182512 -0.031679835
0.44788232 0.11913322 -0.031348124
0.45697552 0.11607071 -0.035641417
0.47022784 0.11234055 -0.037183598
0.48471433 0.11446363 -0.043251686
0.50260001 0.11443646 -0.044379484
0.51853991 0.1110449 -0.041630089
0.52961898 0.11246148 -0.035594031
0.54657501 0.11377066 -0.031680353
0.55616665 0.11407438 -0.03026922
0.44420308 0.12864117 -0.036757194
0.45305106 0.12246839 -0.041155424
0.52899998 0.12002369 -0.031777926
0.54877776 0.12185725 -0.031431556
0.55499995 0.12099701 -0.030205725
0.44046885 0.14244819 -0.037056729
0.44147804 0.1572051 -0.037078999
0.45040002 0.16338657 -0.044424437
0.44564834 0.16809675 -0.034993224
0.45180008 0.17269824 -0.036539052
0.47 0.18435705 -0.037500106
0.48879996 0.19348617 -0.041830268
0.49279317 0.19785823 -0.042530444
0.49907595 0.20603004 -0.041133158
0.50332826 0.21699142 -0.040862948
0.51428908 0.22090849 -0.033964258
0.50459617 0.23257847 -0.042008888
0.51566303 0.23227994 -0.034343626
0.52499998 0.23306221 -0.030267078
0.49399999 0.25198394 -0.044420466
0.50401062 0.24825855 -0.041990127
0.5173071 0.24725369 -0.034502473
0.52536368 0.24975719 -0.030288044
0.50408822 0.25680974 -0.039983671
0.51838189 0.26074985 -0.033827793
0.52580005 0.2609908 -0.030313201
0.64199996 -0.33140832 -0.015260161
0.61249995 -0.31593117 -0.028145159
0.62232 -0.31879452 -0.022571862
0.63490474 -0.32179824 -0.017002521
0.60840005 -0.30655926 -0.027506966
0.6219238 -0.30757079 -0.022407966
0.63504469 -0.30851296 -0.017273583
0.59807146 -0.29233059 -0.029655036
0.60706854 -0.29254821 -0.027046567
0.62223238 -0.29197717 -0.021265505
0.63276917 -0.29369408 -0.016373435
0.597 -0.27715278 -0.029208172
0.60624683 -0.27675036 -0.026137346
0.6212393 -0.27699748 -0.020135691
0.63155538 -0.27630025 -0.015917299
0.5987857 -0.26285645 -0.029690456
0.60671419 -0.26335636 -0.027007654
0.62264508 -0.26345047 -0.021724232
0.63397264 -0.26304129 -0.01704184
0.60588771 -0.24678963 -0.027271416
0.6216355 -0.24747613 -0.020697277
0.63224989 -0.25155768 -0.016555982
0.5977692 -0.22966617 -0.028711779
0.60657942 -0.23255718 -0.023989247
0.61798 -0.23345403 -0.017477755
0.59565806 -0.22062232 -0.027608816
0.60597855 -0.22211093 -0.022192819
0.41849998 -0.15044376 -0.016447496
0.42212766 -0.15114202 -0.022665733
0.41682163 -0.14058381 -0.020326156
0.42149371 -0.14525932 -0.025863111
0.41241971 -0.12721756 -0.022413557
0.40932399 -0.11217102 -0.022739163
0.41325247 -0.1002894 -0.021571944
0.42596686 -0.094547838 -0.023045707
0.43829373 -0.091371171 -0.023303598
0.44556114 -0.088842481 -0.022769196
0.45742568 -0.086649314 -0.021815209
0.4715808 -0.081227198 -0.022413641
0.48049998 -0.078523621 -0.02876804
0.57099998 -0.07500048 -0.027852088
0.47599998 -0.074812092 -0.015154333
0.56773823 -0.066784337 -0.029065751
0.57615477 -0.065767258 -0.023748292
0.59134597 -0.065827712 -0.016508702
0.56817955 -0.054175984 -0.029229613
0.57723045 -0.05228718 -0.024478996
0.59033668 -0.052379295 -0.017521046
0.56658137 -0.036640864 -0.029004902
0.57744944 -0.038000949 -0.02495292
0.58999175 -0.037533052 -0.018248908
0.56575918 -0.021191165 -0.028572939
0.57642955 -0.022168538 -0.023552395
0.58886665 -0.023872543 -0.017494095
0.56407934 -0.0068339729 -0.026715983
0.57554275 -0.0078037414 -0.019735547
0.58566666 -0.013607167 -0.016283464
0.56055588 0.0077414704 -0.022422649
0.56999999 0.00055432587 -0.018147001
0.55108404 0.024252893 -0.022541456
0.55562264 0.017084291 -0.023473285
0.55026162 0.037490509 -0.022557296
0.5524478 0.051087558 -0.024016147
0.55627805 0.054127879 -0.022034058
0.55042851 0.066824205 -0.028392065
0.56206506 0.066943698 -0.021593934
0.57326311 0.073007971 -0.017517213
0.55153567 0.080792353 -0.029539268
0.5621503 0.08239679 -0.025772827
0.57565916 0.083143547 -0.019081078
0.55004394 0.098399498 -0.028482748
0.56207144 0.097461209 -0.024184519
0.57483768 0.097019963 -0.018316997
0.44702142 0.11795337 -0.021765206
0.45480743 0.11267737 -0.022603355
0.46948761 0.10846898 -0.025399242
0.47999999 0.10774434 -0.02612387
0.55095828 0.10729839 -0.028388476
0.56404448 0.11354852 -0.02356285
0.57232374 0.11104898 -0.017034603
0.44116423 0.12741432 -0.022534562
0.55399996 0.12256697 -0.029257465
0.56523162 0.12369711 -0.022456644
0.57000005 0.12196771 -0.015847884
0.43630934 0.1423427 -0.022405652
0.43818459 0.15715966 -0.022571534
0.44565079 0.17047332 -0.022775972
0.45215008 0.17586285 -0.019762119
0.458 0.18114704 -0.016059175
0.52109528 0.22233996 -0.028319364
0.52362496 0.22822849 -0.028709609
0.52919436 0.23462655 -0.026299745
0.54825342 0.23606706 -0.018696999
0.53271264 0.24763593 -0.025991786
0.54657012 0.24749526 -0.018696928
0.53361648 0.26259252 -0.026165346
0.54565406 0.26217404 -0.018620424
0.53607839 0.2729941 -0.024757085
0.54509896 0.27517331 -0.018546555
0.67190903 -0.34640396 -0.0022708133
0.65216005 -0.33303931 -0.012589182
0.66734207 -0.33802268 -0.0059431912
0.67500001 -0.33809558 -0.00079774793
0.64300001 -0.31791696 -0.013727789
0.65337873 -0.32169491 -0.010169243
0.66547191 -0.32342952 -0.003923065
0.64235473 -0.307437 -0.013462869
0.65173948 -0.30747497 -0.0083364397
0.66430503 -0.30704346 -0.0025242665
0.63974589 -0.29202661 -0.012171385
0.65094227 -0.29235709 -0.0074045672
0.66331995 -0.29377753 -0.0026216949
0.63738555 -0.27754468 -0.012280217
0.65242708 -0.27705434 -0.0056911102
0.66185004 -0.27682659 -0.0012087972
0.64092857 -0.26216194 -0.012157741
0.65050489 -0.26224303 -0.0053845448
0.66033334 -0.26788139 -0.0013131143
0.62899995 -0.24095961 -0.014443739
0.63797647 -0.24708861 -0.010780449
0.65004689 -0.24978724 -0.0040511405
0.62464708 -0.23304434 -0.013362919
0.63366669 -0.23705159 -0.0093938736
0.64499998 -0.23876236 -0.0049249195
0.41239998 -0.15109326 -0.0059657763
0.4104155 -0.14259794 -0.00757227
0.40286666 -0.12496922 -0.0039892616
0.4071635 -0.1290468 -0.0096929967
0.40162191 -0.11211795 -0.0067294394
0.40557584 -0.11317807 -0.013755598
0.4023931 -0.10192184 -0.00417411
0.40956822 -0.09858162 -0.0088688005
0.42692572 -0.093830228 -0.008477428
0.43719271 -0.091539666 -0.0048255813
0.44472066 -0.088708177 -0.0062240954
0.45746922 -0.086580247 -0.0081453715
0.4731634 -0.081649646 -0.0089749862
0.48182264 -0.079350509 -0.0041374471
0.60871428 -0.07672628 -0.0086191809
0.61639994 -0.076588735 -0.0013238535
0.47633332 -0.074864477 -0.013627357
0.47999999 -0.074278921 -0.010635033
0.59639138 -0.065746233 -0.013756857
0.60707921 -0.068027928 -0.0087609049
0.61764735 -0.066781484 -0.0024560264
0.59696764 -0.052642349 -0.013722657
0.60663545 -0.052679781 -0.0094842948
0.62109989 -0.052512202 -0.0032296407
0.59784997 -0.036369231 -0.013341792
0.60657144 -0.037180651 -0.0085031437
0.61858225 -0.038963716 -0.0028118154
0.59645832 -0.021322843 -0.012972271
0.60667187 -0.022711575 -0.006106575
0.61499995 -0.029174332 -0.0012229757
0.57757783 -0.0028347268 -0.0090674357
0.59132749 -0.0092965774 -0.0088028945
0.60309082 -0.011427533 -0.0035165315
0.55262786 0.012615725 -0.0061925859
0.56033862 0.0056708665 -0.0082133077
0.57080001 0.00055510458 -0.0025158462
0.54826301 0.022636805 -0.0077327341
0.54557729 0.037512984 -0.0076962747
0.54970163 0.050907549 -0.0078530908
0.55644184 0.058468435 -0.0070649851
0.5640834 0.063711688 -0.0074805664
0.57671726 0.071157694 -0.0077881501
0.58499998 0.074201196 -0.00069139752
0.58303511 0.081727922 -0.012784739
0.58982843 0.082930565 -0.006384064
0.454 0.10447232 -0.014087684
0.58228326 0.097691491 -0.013431754
0.59190387 0.097522706 -0.0061128694
0.44782081 0.11852577 -0.011450943
0.45346683 0.1134102 -0.0080061071
0.58003718 0.11179738 -0.012787299
0.59138066 0.11258106 -0.0054799481
0.44377643 0.1276702 -0.0079391701
0.45061105 0.12094087 -0.0019051414
0.56749994 0.12738402 -0.013947143
0.57727766 0.12365728 -0.011949231
0.59193236 0.12641193 -0.0043129283
0.4411504 0.1424942 -0.0077277203
0.59407133 0.13721994 -0.0027842398
0.44237539 0.15641457 -0.0078603644
0.44759986 0.16770041 -0.0097168935
0.45307237 0.17430481 -0.011056238
0.55299997 0.23656613 -0.014483009
0.55900002 0.23730659 -0.010406082
0.5750953 0.23830652 -0.0023130169
0.55272555 0.24759793 -0.014028979
0.56148475 0.24754301 -0.007954591
0.57166666 0.24670468 -0.0016937999
0.55328572 0.26273862 -0.014061537
0.56182939 0.26288438 -0.0070866765
0.57059991 0.26046777 -0.0010791615
0.55114508 0.27677968 -0.0136294
0.56227511 0.27713388 -0.0069396552
0.57100004 0.27870157 -0.00095524476
0.56444228 0.28773597 -0.0053841909
0.57080001 0.28931531 -0.0011350943
0.67339993 -0.34729162 0.00072559825
0.67800015 -0.34738213 0.0060259392
0.67366666 -0.33996183 0.00029073504
0.67984372 -0.33791485 0.0054704635
0.67325932 -0.32141203 0.0011355124
0.67796963 -0.32180822 0.0065987338
0.67205167 -0.30722407 0.0021804359
0.67708826 -0.30860037 0.0079925889
0.67104101 -0.29178724 0.0029951287
0.67746991 -0.29330572 0.0095553268
0.66960883 -0.27757439 0.0027698597
0.67745072 -0.27888831 0.0087498678
0.65819997 -0.25575677 0.0011340062
0.66536456 -0.26327258 0.0045297388
0.65710342 -0.25022775 0.0020769825
0.65999991 -0.25354525 0.0045442609
0.40252176 -0.15129009 0.012651271
0.40738025 -0.15215696 0.005258162
0.4008061 -0.14096592 0.0088444594
0.40582144 -0.14587194 0.0032485744
0.39805269 -0.12745564 0.0075898101
0.39539918 -0.11209138 0.0075394595
0.39963701 -0.10049773 0.0079083228
0.41082525 -0.095423616 0.0053281435
0.42885888 -0.09323433 0.0084927799
0.43635997 -0.091065787 0.005975219
0.44269344 -0.088777214 0.0078220647
0.45771837 -0.085887112 0.0088403737
0.47087109 -0.084093779 0.0046720682
0.48355889 -0.080512799 0.0031189118
0.62257129 -0.077159092 0.0053881863
0.63099998 -0.075753823 0.01198009
0.62446868 -0.069270633 0.0033829052
0.63489926 -0.066098928 0.0097094094
0.62840736 -0.052868608 0.00075939973
0.63447785 -0.052366879 0.0072163171
0.6245712 -0.035477296 0.0031018825
0.63223654 -0.038196962 0.0086261434
0.61299998 -0.018781319 0.00078842719
0.61886948 -0.022396263 0.0050456296
0.63129169 -0.027231617 0.011563547
0.5652222 -0.0011234378 0.01240014
0.57597214 -0.0023571316 0.0081205685
0.59540629 -0.004438052 0.0047356482
0.60860866 -0.0091690971 0.0049987803
0.6170249 -0.012343318 0.0085337227
0.54924548 0.010724618 0.0078160111
0.55894107 0.0034904655 0.0068900846
0.57066667 0.00055497512 0.0011664577
0.53899986 0.025823265 0.012294037
0.54307497 0.022116436 0.0067837979
0.54528433 0.037408624 0.0072676544
0.55146801 0.050456814 0.0087156957
0.55690616 0.055834301 0.0053290739
0.55241668 0.061822824 0.013829974
0.56296599 0.064214773 0.0077196262
0.57454711 0.069961093 0.0052613229
0.58566666 0.074285761 0.0024555961
0.59464586 0.080588177 0.0053508035
0.60243905 0.086624153 0.0084823985
0.59866667 0.10250016 0.00074129982
0.60628998 0.097219773 0.0072375303
0.61499995 0.10430536 0.013660815
0.45729178 0.11691231 0.0020135115
0.59845448 0.11208034 0.00087282388
0.60564739 0.11204545 0.0068213083
0.61539388 0.1132654 0.013534531
0.44795468 0.12913895 0.0041659568
0.45302957 0.12404049 0.00422537
0.59843743 0.12756619 0.00074101496
0.60773349 0.128361 0.0074853934
0.61530763 0.12394807 0.013858465
0.44818363 0.13993005 0.0011241195
0.45293984 0.14299954 0.0055434499
0.59842861 0.13867366 0.00025824519
0.60620266 0.14071205 0.0067894487
0.4485333 0.15532583 0.00019355732
0.45539188 0.15468575 0.0050251582
0.57833934 0.23757432 0.004409424
0.57876426 0.24781741 0.0063606692
0.5784089 0.26273841 0.0056398325
0.58589995 0.26156288 0.012779421
0.57971054 0.27652049 0.0058881426
0.58614624 0.28031406 0.012432408
0.57958341 0.29173377 0.0040272698
0.58867532 0.29291755 0.01113381
0.58866668 0.30151412 0.012109433
0.39569655 -0.15116042 0.024886288
0.39567366 -0.14237119 0.022585722
0.39266542 -0.12734191 0.022515491
0.38845447 -0.1126798 0.023945397
0.39127725 -0.11109075 0.020777408
0.39897993 -0.10157695 0.022508074
0.41069499 -0.095800176 0.022990061
0.42682523 -0.092355751 0.023170939
0.43662494 -0.090757623 0.020347908
0.44201455 -0.08719936 0.02319132
0.4538292 -0.084665164 0.01746141
0.64199996 -0.062052645 0.015814288
0.64199996 -0.058944695 0.015814288
0.56497324 -0.0021144901 0.02300835
0.5463239 0.010387332 0.02202023
0.55988574 0.0030918487 0.022929821
0.5389111 0.023624239 0.01987635
0.54098004 0.021914048 0.023481818
0.53676313 0.037386969 0.02672052
0.54258841 0.037363037 0.019192191
0.53806669 0.046542346 0.028126935
0.54473138 0.052436121 0.021854118
0.55121046 0.063131005 0.016338781
0.61175871 0.096120186 0.015988331
0.61499989 0.10306484 0.01638951
0.61699998 0.11325082 0.016454024
0.6138823 0.13124044 0.016287027
0.61634207 0.12449931 0.016674962
0.6124 0.13696873 0.015579178
0.58777028 0.2651279 0.017138842
0.58400011 0.27150503 0.016270045
0.58681661 0.27826557 0.017532144
0.59196937 0.29298854 0.017418791
0.59282768 0.30247718 0.017538996
0.39414638 -0.15142502 0.032167561
0.39761403 -0.14305693 0.034474041
0.41102901 -0.13933237 0.041494012
0.39744037 -0.12740526 0.033777468
0.41291374 -0.12844031 0.041400831
0.41999999 -0.12802443 0.04456643
0.38899997 -0.11426357 0.03069004
0.39563352 -0.11123364 0.035238903
0.40945619 -0.11290707 0.042699412
0.39986843 -0.10226604 0.033931248
0.4117344 -0.097414628 0.038019747
0.42535135 -0.091650195 0.036384858
0.43538457 -0.090316363 0.035253711
0.42929414 -0.089593276 0.040324204
0.44244725 -0.086694166 0.036929153
0.45066667 -0.082829833 0.032915179
0.55063164 -0.0019213373 0.041612662
0.55911547 -0.0023199208 0.034316294
0.5361793 0.011132656 0.041704308
0.54561055 0.0070235394 0.03677164
0.55776465 0.0024202322 0.032288108
0.53290069 0.023449415 0.039686672
0.54249108 0.020566298 0.033397585
0.5315159 0.037400372 0.037524655
0.53619856 0.048880219 0.038840983
0.54327053 0.05437484 0.034149088
0.41800004 -0.14172789 0.046260502
0.42569017 -0.138448 0.050607212
0.43709525 -0.13685992 0.057584703
0.42665637 -0.12797913 0.049518324
0.4384461 -0.12748282 0.056914262
0.41677421 -0.11091565 0.046720464
0.42726788 -0.1127222 0.051590309
0.43779454 -0.11352677 0.05759931
0.41642857 -0.10055233 0.047153261
0.42865583 -0.097765908 0.051688932
0.43676281 -0.093805067 0.055337798
0.43399999 -0.089921497 0.045351751
0.43933532 -0.087126695 0.051505025
0.54535556 -0.0021124175 0.052571833
0.53133863 0.0090562971 0.052705497
0.54198241 0.0017684272 0.050913785
0.52306503 0.022683857 0.050389562
0.52592802 0.02217878 0.054568
0.52136058 0.038267851 0.056359928
0.5275057 0.036785554 0.049467362
0.522515 0.048519615 0.056335345
0.53051543 0.050208345 0.049367867
0.44140002 -0.13575771 0.061152261
0.44439891 -0.12627172 0.064258508
0.44486353 -0.11281572 0.065365128
0.44268277 -0.099728405 0.064304136
0.44280002 -0.08902847 0.060917467
0.5389998 -0.001292111 0.06847322
0.54043168 -0.0026212628 0.066517904
0.52319998 0.014355171 0.074002944
0.53274667 0.0075511043 0.067688271
0.53999996 0.00052515423 0.060349051
0.52003306 0.023977414 0.072483793
0.52817935 0.021758121 0.065702349
0.5188961 0.037300609 0.067925498
0.52500004 0.030161964 0.063754961
0.52201903 0.048679989 0.067120686
0.52499998 0.052188709 0.065872572
0.79399991 0.11872846 0.070240207
0.79499996 0.11879779 0.068965837
0.79399997 0.12405194 0.0700766
0.79547668 0.12799408 0.069271564
0.79580003 0.1371529 0.074556194
0.52268428 -0.0018467247 0.088859797
0.53311121 -0.0028412146 0.082990982
0.54066664 -0.003837412 0.076948382
0.51878345 0.0090544373 0.084085993
0.53029853 0.0044767349 0.079187877
0.50708723 0.026220407 0.085492104
0.51344341 0.020663794 0.080970898
0.50652879 0.036114126 0.084935732
0.51123029 0.039258454 0.07862325
0.50799996 0.045908839 0.08890181
0.51494825 0.049584404 0.08262518
0.79399997 0.11864839 0.078487001
0.79499996 0.11815636 0.083075196
0.79400021 0.12560873 0.082676366
0.79499918 0.12809865 0.082028799
0.79535908 0.13866563 0.082672231
0.50794744 -0.0021396705 0.10259463
0.51484478 -0.0037607008 0.096957996
0.50324339 0.0078716343 0.10147705
0.51382357 0.0075488207 0.094304048
0.49399996 0.023504233 0.10267048
0.49997094 0.022611931 0.097064272
0.51192862 0.017114738 0.092922173
0.49959445 0.037380543 0.097387232
0.5043841 0.04860694 0.09619429
0.50999999 0.051520586 0.090732932
0.79400003 0.12633593 0.092578605
0.79604769 0.13094658 0.091778629
0.79774994 0.1369096 0.091729745
0.50709569 -0.0021769544 0.11377591
0.51287407 -0.0054574111 0.1136089
0.49338156 0.012955125 0.11485197
0.49973568 0.0063515054 0.11177605
0.49283704 0.020130273 0.1122658
0.4959456 0.026980804 0.11235308
0.49732411 0.037400533 0.11254308
0.50207257 0.051602181 0.11427159
0.51253128 0.056352645 0.10991561
0.50415385 0.061129957 0.1172214
0.50527924 -0.0041554337 0.12685879
0.51000005 -0.0085567692 0.13352083
0.49400002 0.014032118 0.12096312
0.50297511 0.0072214594 0.12755424
0.49399999 0.01841649 0.1209631
0.49998584 0.023118516 0.12814721
0.49917102 0.037182592 0.12742364
0.5028047 0.0516834 0.12708689
0.50299996 0.060553618 0.12032648
0.50297958 -0.0039856993 0.14174025
0.51000005 -0.0085567692 0.13598937
0.49300006 0.013000299 0.14848287
0.50332105 0.0070313201 0.14253837
0.51010537 0.013839871 0.13939616
0.49171123 0.021638382 0.14853723
0.50202769 0.022867423 0.14247495
0.51025009 0.016277356 0.14003518
0.49242309 0.036563534 0.14906944
0.50058407 0.037574217 0.14270274
0.50573832 0.050893124 0.14416495
0.50999969 0.055030059 0.14160737
0.50739998 0.060264535 0.14757292
0.50999999 0.060573336 0.14586349
0.49886417 -0.0017806145 0.15880373
0.49254885 0.012343517 0.15774794
0.49764419 0.0048674704 0.15722381
0.48758665 0.02249822 0.15676059
0.48746464 0.037861131 0.15722919
0.48800009 0.047370143 0.15426588
0.49921232 0.053806301 0.15157044
0.49250001 -0.00071354513 0.17383465
0.49660462 -0.0015864205 0.16871417
0.48614293 0.009008348 0.17173123
0.49578872 0.0031518501 0.16795865
0.47353098 0.024832252 0.17300507
0.48677418 0.021434801 0.17028934
0.47552192 0.036418851 0.17062519
0.48360017 0.035092995 0.16642925
