# .PCD v0.7 - Point Cloud Data file format
VERSION 0.7
FIELDS x y z
SIZE 4 4 4
TYPE F F F
COUNT 1 1 1
WIDTH 1376
HEIGHT 1
VIEWPOINT 0 0 0 1 0 0 0
POINTS 1376
DATA ascii
0.41200882 0.14235468 -0.098952316
0.42339674 0.14238277 -0.092053644
0.40230876 0.15802516 -0.10351404
0.41254899 0.15719651 -0.098864697
0.42370158 0.15766723 -0.092437118
0.40140659 0.17279871 -0.10373401
0.41218805 0.17237042 -0.099044837
0.42331126 0.17213602 -0.092599273
0.40118587 0.18722932 -0.10378231
0.4132922 0.18801227 -0.099567972
0.42366025 0.18768936 -0.092779294
0.40160012 0.20115259 -0.10344765
0.41215223 0.20211592 -0.097542278
0.42281452 0.20142975 -0.09161666
0.41558713 0.21193382 -0.096307658
0.42222786 0.21389411 -0.091813654
0.44505686 -0.22778134 -0.085845351
0.45623377 -0.23090993 -0.078409657
0.44348219 -0.21761107 -0.085866243
0.45536098 -0.21733154 -0.078439899
0.44277358 -0.20255318 -0.086033799
0.45561367 -0.20227288 -0.078416079
0.46566665 -0.19705072 -0.075430773
0.44266993 -0.18705815 -0.085402325
0.45569885 -0.18769452 -0.077723265
0.46699998 -0.18040724 -0.075145163
0.43366668 -0.16659805 -0.089489125
0.44213358 -0.17304045 -0.085112102
0.45657393 -0.17486161 -0.078840278
0.46783504 -0.17323135 -0.077373073
0.41780001 -0.15034381 -0.078148954
0.42830759 -0.15600486 -0.087251671
0.43755695 -0.16196404 -0.084789164
0.41392016 -0.14116938 -0.08234264
0.42025003 -0.14867139 -0.087398939
0.4126595 -0.12732677 -0.082211524
0.41602716 -0.11561386 -0.080392629
0.42280877 -0.11022746 -0.084683686
0.42425558 -0.097550295 -0.08260572
0.42602754 -0.082365975 -0.082593933
0.43099371 -0.067773297 -0.082762986
0.435 -0.060808726 -0.085490443
0.43337929 -0.058925338 -0.079818271
0.43962091 -0.052674998 -0.083824918
0.4540244 -0.048400253 -0.077281952
0.433 -0.030672127 -0.089933924
0.44018617 -0.03739994 -0.085823432
0.45533788 -0.03744534 -0.078267805
0.43365586 -0.022889219 -0.089392819
0.44172934 -0.022411359 -0.083779804
0.45511207 -0.022104461 -0.076855838
0.43287507 -0.0065289773 -0.089014471
0.44144195 -0.0075504202 -0.083739363
0.45365679 -0.0075213267 -0.077040993
0.43283322 0.0074067097 -0.088849954
0.44053206 0.0071603055 -0.084266938
0.45604888 0.0076940185 -0.078085199
0.4323965 0.022218527 -0.089121215
0.44248033 0.022606242 -0.084831804
0.45739093 0.022604292 -0.077891685
0.43291008 0.037605602 -0.088955797
0.44245484 0.038141608 -0.083750732
0.45319194 0.036518108 -0.077166408
0.43255168 0.048561558 -0.089070208
0.44060916 0.052322749 -0.08515089
0.45440045 0.053207479 -0.078451544
0.44218117 0.067691565 -0.0853329
0.45290899 0.066938378 -0.077583201
0.43115494 0.086245403 -0.088488668
0.44163847 0.082229152 -0.084046215
0.45311967 0.082169615 -0.077105671
0.4296253 0.097087637 -0.088764526
0.44316965 0.097315192 -0.083672337
0.4532817 0.097777233 -0.077220432
0.4324359 0.11263164 -0.088974379
0.4425579 0.11297544 -0.083799683
0.45124537 0.11128625 -0.076776549
0.43090025 0.12705465 -0.087612078
0.44222817 0.12717614 -0.081268936
0.45129502 0.12724988 -0.076197349
0.43099988 0.14259984 -0.088548668
0.44170922 0.14215176 -0.083169945
0.45250762 0.14341298 -0.077019289
0.43071535 0.15838648 -0.088384889
0.44192684 0.15776898 -0.082909971
0.45363373 0.15688181 -0.076924093
0.43048677 0.17297281 -0.087445252
0.44215146 0.17234302 -0.081785321
0.45292684 0.17307821 -0.076385751
0.43126562 0.18765736 -0.087161601
0.44189915 0.18627007 -0.081318192
0.45331308 0.18774927 -0.076776221
0.42948958 0.2026514 -0.08773835
0.441708 0.2032242 -0.08256197
0.45246422 0.20226043 -0.077742472
0.42962721 0.21561435 -0.087355189
0.4416461 0.21796533 -0.08074525
0.45141676 0.21673422 -0.075990848
0.44523197 0.22730871 -0.077629842
0.45042861 0.2265895 -0.075592324
0.4745191 -0.24291377 -0.069704995
0.48441088 -0.24502887 -0.06318029
0.46299997 -0.23155195 -0.074371323
0.4714928 -0.23282531 -0.071165167
0.48514321 -0.2322153 -0.0641945
0.46234894 -0.2186345 -0.074256815
0.4717862 -0.21717414 -0.070723593
0.48488966 -0.21803991 -0.063907653
0.46283326 -0.20481275 -0.074349925
0.47227776 -0.2025689 -0.070521928
0.48459575 -0.2023471 -0.063334659
0.46339998 -0.18597165 -0.074415199
0.47234157 -0.18723007 -0.070624284
0.4837316 -0.18814443 -0.0634351
0.47233352 -0.17527933 -0.070853442
0.48299998 -0.1782079 -0.062322449
0.40359068 -0.13883093 -0.061825529
0.40901428 -0.14136997 -0.069594994
0.40354538 -0.1309576 -0.061336815
0.40788305 -0.12673926 -0.068138063
0.41175717 -0.11262511 -0.067552775
0.41521063 -0.098276116 -0.066022642
0.42064148 -0.094780184 -0.072850689
0.41807842 -0.083738789 -0.063185729
0.42124808 -0.081951417 -0.070347548
0.41893744 -0.070026249 -0.061370455
0.42296883 -0.067347214 -0.06824261
0.42531925 -0.058071166 -0.067307025
0.43962967 -0.054973073 -0.07357391
0.45946607 -0.050356176 -0.072750039
0.47165278 -0.049191047 -0.065618627
0.47999999 -0.045232657 -0.060199283
0.46250013 -0.037640806 -0.073633999
0.47205317 -0.03785513 -0.067688659
0.48125011 -0.036706015 -0.061796237
0.46142477 -0.022030378 -0.073373489
0.47158185 -0.022653947 -0.067837745
0.48216069 -0.022027278 -0.061831471
0.46066645 -0.0075162644 -0.073054336
0.47099128 -0.0076311249 -0.067801736
0.48317915 -0.0069282982 -0.062225915
0.46338776 0.006391855 -0.074074984
0.47134563 0.0077513549 -0.069324195
0.48407975 0.0075118383 -0.062638029
0.46399999 0.029652415 -0.074288115
0.47167164 0.02280377 -0.069460534
0.48322123 0.021653494 -0.061996471
0.4596734 0.038501095 -0.072691217
0.47223884 0.036787082 -0.067193002
0.4823609 0.03757707 -0.0615828
0.45985064 0.051004492 -0.072920293
0.47278485 0.052533273 -0.067725107
0.4832629 0.052919719 -0.061956421
0.46034271 0.066722304 -0.072837099
0.47305241 0.067954041 -0.06790895
0.48281181 0.066898018 -0.062192898
0.46112078 0.082286872 -0.073022231
0.47249949 0.082147874 -0.067937352
0.48148569 0.083209589 -0.062284775
0.46062511 0.097629607 -0.07286299
0.47256389 0.097737789 -0.067626126
0.48188791 0.096696459 -0.06225612
0.45802322 0.11255343 -0.072233297
0.47178516 0.11218935 -0.066150852
0.48223767 0.11292049 -0.061391141
0.45706677 0.12740344 -0.072395831
0.4722634 0.12744758 -0.067202151
0.48347065 0.12776811 -0.062284667
0.45916799 0.14207439 -0.072707199
0.47337288 0.14305131 -0.067008309
0.48178107 0.1410118 -0.061666667
0.46112359 0.15773149 -0.07276617
0.47248891 0.1575529 -0.06666059
0.48018956 0.15717709 -0.061010864
0.46021232 0.17210548 -0.072602957
0.47252798 0.1722742 -0.066061147
0.48062232 0.17324916 -0.060845736
0.46072045 0.18839601 -0.072448522
0.47121009 0.18787725 -0.06593778
0.48051581 0.18593191 -0.061450489
0.45879993 0.20199192 -0.071570285
0.47070798 0.20207876 -0.064395167
0.47999999 0.20882535 -0.060586512
0.45916489 0.21778953 -0.072392181
0.4727537 0.21804357 -0.065445103
0.48017222 0.21555065 -0.060567815
0.45828229 0.23064141 -0.071669802
0.47217283 0.23226753 -0.064850233
0.48033333 0.2310587 -0.060241103
0.47380435 0.2419284 -0.06275218
0.49399999 -0.25540745 -0.057969946
0.50390774 -0.2580722 -0.053136948
0.51578838 -0.26076683 -0.047304966
0.49170259 -0.24695389 -0.058834251
0.50160325 -0.24750558 -0.054310985
0.51657695 -0.24790668 -0.048106883
0.4926585 -0.23299189 -0.059245452
0.50128388 -0.23236841 -0.054714624
0.51713395 -0.23239987 -0.04795222
0.49225578 -0.21654035 -0.059444323
0.50184083 -0.21803014 -0.055354256
0.51507765 -0.2175031 -0.048553452
0.49232721 -0.20317355 -0.05923
0.5022068 -0.20244415 -0.054663368
0.5143699 -0.2021199 -0.04819078
0.49148643 -0.18703192 -0.058605034
0.50127363 -0.19049153 -0.055166166
0.51275873 -0.1930889 -0.050036676
0.48800001 -0.17907006 -0.059234232
0.3993285 -0.14026052 -0.052325718
0.40037265 -0.12758657 -0.052368447
0.40500003 -0.12191166 -0.059567843
0.40248069 -0.11415825 -0.049265496
0.4062959 -0.111035 -0.055781424
0.40358645 -0.10078617 -0.046735797
0.40842843 -0.096713223 -0.053325217
0.41262844 -0.082512818 -0.052464601
0.41486233 -0.067507982 -0.052583829
0.41999999 -0.060588706 -0.059450734
0.41575009 -0.058426458 -0.05152797
0.41999999 -0.058555473 -0.059450734
0.47819582 -0.05340017 -0.058126789
0.4852314 -0.05013825 -0.052480545
0.5020625 -0.046576772 -0.048037887
0.51083326 -0.047450267 -0.045384735
0.48899499 -0.037991796 -0.056603272
0.5017525 -0.03746574 -0.05000582
0.51060605 -0.038230915 -0.045564052
0.4893676 -0.022639398 -0.056500044
0.50233507 -0.022823649 -0.049732476
0.51215893 -0.021176966 -0.045938551
0.49039316 -0.0073937345 -0.056386884
0.50144023 -0.0072989794 -0.049504358
0.51196879 -0.0087244017 -0.045647822
0.49206361 0.0070034219 -0.057177342
0.50053638 0.0079286052 -0.049864192
0.51027793 0.0074988147 -0.045060851
0.49171504 0.022514606 -0.057857227
0.50109249 0.02239082 -0.051359862
0.51171416 0.023045298 -0.046114869
0.49001691 0.038181774 -0.056960776
0.50267178 0.03738514 -0.050123133
0.51097429 0.034999784 -0.045882672
0.4909133 0.052223388 -0.057625696
0.50170743 0.052616384 -0.050489344
0.51031584 0.052375369 -0.045064222
0.49108326 0.067125343 -0.05770478
0.50155115 0.067709364 -0.051242821
0.51149994 0.068182513 -0.046009168
0.48872226 0.082627632 -0.057062011
0.50193197 0.082530156 -0.050218802
0.51060009 0.080828242 -0.045706604
0.48927015 0.09769056 -0.056395166
0.50127041 0.097269915 -0.049018469
0.48948982 0.11202645 -0.056201428
0.5016402 0.11272231 -0.0488954
0.49082467 0.12651993 -0.057027664
0.50084317 0.12779954 -0.049859628
0.48880562 0.14314146 -0.057734106
0.5014022 0.14196372 -0.051381931
0.51095724 0.14426532 -0.04615498
0.48568711 0.15673821 -0.057766516
0.50351548 0.15763697 -0.051886164
0.51217186 0.15752633 -0.046877701
0.48738152 0.17386152 -0.055897109
0.50149405 0.17169036 -0.050040826
0.51115626 0.16793834 -0.046296827
0.47799999 0.19484244 -0.059948463
0.48747036 0.18731225 -0.054911811
0.49851587 0.18786569 -0.047263958
0.47800002 0.19947051 -0.059948463
0.48714095 0.201777 -0.055436913
0.50054586 0.20331067 -0.048529353
0.50999999 0.20829779 -0.045036338
0.48838416 0.21733162 -0.056108262
0.49968016 0.217602 -0.048327554
0.50999999 0.21035524 -0.045036338
0.4782728 0.23782137 -0.059491463
0.48755202 0.23247163 -0.055352081
0.49979469 0.23201366 -0.048049938
0.47800004 0.24305119 -0.059562858
0.48881808 0.24591935 -0.054346181
0.50027037 0.24744727 -0.047776446
0.50150001 0.25661725 -0.04670785
0.52299994 -0.27040103 -0.043652847
0.53355539 -0.27311391 -0.03840803
0.54249316 -0.27554777 -0.032457463
0.52306056 -0.26347074 -0.044092517
0.53284591 -0.2620773 -0.038779166
0.54238677 -0.26277801 -0.031919673
0.53204459 -0.24786355 -0.040148556
0.54305953 -0.24779604 -0.032560814
0.52399999 -0.22610292 -0.044159032
0.5317865 -0.232501 -0.039073844
0.54298532 -0.23270613 -0.031834226
0.52163488 -0.21533018 -0.043455537
0.53211129 -0.21789829 -0.037640717
0.54167855 -0.21799994 -0.031507846
0.52139294 -0.20378247 -0.043333583
0.53044879 -0.20681195 -0.036988631
0.542 -0.20938057 -0.030372661
0.38885576 -0.14116842 -0.031865623
0.39152309 -0.14024384 -0.039039116
0.389 -0.13303678 -0.031526942
0.39353919 -0.12715878 -0.037726894
0.39715427 -0.11252879 -0.037306413
0.40037954 -0.097703308 -0.037392583
0.40520009 -0.091407791 -0.043594386
0.40157729 -0.082761854 -0.034576103
0.40673473 -0.082090825 -0.042149317
0.40305996 -0.070022844 -0.032489575
0.40735787 -0.066664703 -0.039175496
0.40399998 -0.05860652 -0.030461263
0.40785906 -0.058479954 -0.037272107
0.49100003 -0.053400096 -0.044942882
0.50343746 -0.05153862 -0.044352747
0.517878 -0.048472725 -0.041487418
0.52499998 -0.045237303 -0.037466951
0.51967657 -0.038177446 -0.042154036
0.53061843 -0.035931546 -0.035260826
0.51924539 -0.022817116 -0.042661875
0.53194529 -0.022426846 -0.035104126
0.51898527 -0.0066011683 -0.042050172
0.53159022 -0.0080241766 -0.034789242
0.51793212 0.0070680948 -0.041464601
0.53085476 0.0079713576 -0.034075383
0.5195753 0.023296388 -0.041809514
0.53164345 0.021910679 -0.034456961
0.53999996 0.029280951 -0.030696221
0.51820809 0.037212841 -0.041344993
0.5327273 0.038113516 -0.034638744
0.54066682 0.036469474 -0.030734126
0.51780325 0.052697439 -0.04135178
0.53212571 0.052103821 -0.034283601
0.53999996 0.054392774 -0.0303398
0.52030897 0.066976525 -0.041804351
0.53103507 0.06772878 -0.034718689
0.54041171 0.067676902 -0.030283676
0.50866663 0.089143336 -0.044918593
0.51807928 0.083311133 -0.041671101
0.5317477 0.082243122 -0.034793921
0.54090899 0.079952754 -0.030311542
0.50766671 0.097569801 -0.044830281
0.51602954 0.097443618 -0.04058947
0.53060526 0.097267263 -0.033252358
0.50800002 0.11238992 -0.044859715
0.51701468 0.11279237 -0.040382929
0.52859968 0.11215121 -0.03327091
0.50811112 0.12717465 -0.044869531
0.51761478 0.1274256 -0.040259421
0.52805001 0.12741059 -0.032984503
0.50899994 0.13560936 -0.04494803
0.51881582 0.14252807 -0.040308904
0.53086883 0.14200549 -0.033088963
0.54085708 0.14839891 -0.030558022
0.51875895 0.15742724 -0.040374734
0.53008282 0.15790802 -0.032848511
0.54074991 0.15202999 -0.030629953
0.5079999 0.17655087 -0.044337936
0.51767027 0.17194238 -0.040581331
0.53032625 0.17311923 -0.033313841
0.54079992 0.17418838 -0.03030543
0.50531381 0.18780567 -0.043187659
0.51666898 0.1870798 -0.039095674
0.53064877 0.187029 -0.033362444
0.53999996 0.19440897 -0.030260604
0.50721622 0.19983044 -0.043683097
0.51650709 0.20297904 -0.040015578
0.53180641 0.20312718 -0.033402991
0.54049993 0.19785827 -0.030506436
0.50785708 0.21803305 -0.0441272
0.51639438 0.21806346 -0.039852656
0.5306024 0.21696579 -0.033480279
0.50829631 0.23248158 -0.044064678
0.5174107 0.2326373 -0.038846463
0.52846652 0.23230736 -0.032545902
0.50734544 0.24886689 -0.043952413
0.51704019 0.24693643 -0.039188188
0.52879405 0.24768507 -0.032615297
0.50720686 0.25814161 -0.043433238
0.51839769 0.26148358 -0.039250009
0.52984971 0.26294306 -0.033638854
0.53131986 0.27165309 -0.032375731
0.55366659 -0.28595829 -0.022837525
0.56022638 -0.28694528 -0.017844075
0.55021244 -0.27790552 -0.027211599
0.56186539 -0.27787197 -0.020118842
0.56999999 -0.27400547 -0.015388042
0.5495944 -0.26154849 -0.027193565
0.56121248 -0.26274565 -0.02017328
0.57094437 -0.26247254 -0.015413539
0.55045205 -0.24845406 -0.027449038
0.56104755 -0.24702631 -0.02083214
0.57115781 -0.2514472 -0.016290549
0.55072635 -0.23211727 -0.027426902
0.55990124 -0.23248245 -0.019859688
0.5494957 -0.21790758 -0.027286377
0.56052881 -0.2212417 -0.019645076
0.54899997 -0.20924918 -0.027752673
0.38459286 -0.14135937 -0.022564432
0.38516375 -0.1276855 -0.022137137
0.38999993 -0.12452731 -0.029273203
0.38667566 -0.11363178 -0.020258583
0.39130211 -0.11051019 -0.026823215
0.38822529 -0.10127158 -0.017666392
0.39263445 -0.09668491 -0.023780385
0.39332822 -0.082414612 -0.022450833
0.3979269 -0.067575619 -0.022325957
0.39970836 -0.057827294 -0.021790747
0.55956244 -0.048037179 -0.018634871
0.55008495 -0.036474694 -0.024918247
0.5594877 -0.037419263 -0.017921615
0.54776633 -0.022412183 -0.025786731
0.56204778 -0.022745645 -0.018223029
0.54727811 -0.0073802886 -0.025520913
0.56053209 -0.0075365878 -0.018076152
0.53866655 0.010035071 -0.028881967
0.54689729 0.0075833257 -0.024199041
0.55937082 0.0069200955 -0.01720346
0.53791296 0.018225204 -0.028784094
0.54574841 0.023030067 -0.023711527
0.56003916 0.021896234 -0.016705956
0.54779088 0.037315652 -0.025195848
0.55899972 0.037824314 -0.01763102
0.54622716 0.052042153 -0.026722355
0.56185257 0.052962471 -0.019475484
0.56999999 0.056202125 -0.015388057
0.54798889 0.068252109 -0.025385441
0.55988628 0.066304974 -0.018240398
0.53900003 0.087066725 -0.029334929
0.54856324 0.081940614 -0.02459156
0.557868 0.083296679 -0.017349495
0.53707838 0.10028647 -0.028429452
0.54674011 0.097313173 -0.023918007
0.56009889 0.09740036 -0.017358849
0.5358333 0.11286563 -0.027184175
0.54624999 0.11207998 -0.020387325
0.55773675 0.11152392 -0.015742149
0.53554279 0.1272181 -0.027734874
0.54643005 0.12747897 -0.020912578
0.55705267 0.12799188 -0.015629288
0.53746152 0.1381916 -0.02838305
0.54725337 0.14216328 -0.023921469
0.55820245 0.14375524 -0.01745796
0.53900003 0.16317198 -0.028900115
0.54874009 0.1571148 -0.027190322
0.56233215 0.15807259 -0.019780947
0.53899997 0.17926279 -0.028900113
0.54760563 0.17341818 -0.025411868
0.55921125 0.17097621 -0.018720562
0.53699994 0.18429407 -0.029286869
0.54708326 0.18759938 -0.023632845
0.55730665 0.18730801 -0.016600791
0.53855556 0.20774481 -0.029020866
0.54714936 0.20273095 -0.023980794
0.55725342 0.20272054 -0.016503593
0.53653234 0.21892898 -0.028049078
0.54677403 0.21703528 -0.021202736
0.55694997 0.21246223 -0.015752761
0.5357424 0.23185879 -0.027697317
0.54733193 0.23270437 -0.020512152
0.555875 0.23527616 -0.015510422
0.53613037 0.24652141 -0.028624833
0.5468902 0.24742213 -0.021425715
0.55585706 0.24865969 -0.0152621
0.53680885 0.26350722 -0.028228754
0.54672021 0.26196906 -0.02198424
0.55597907 0.26266453 -0.015905503
0.53684604 0.27304876 -0.027948203
0.54688275 0.27575555 -0.020184191
0.55563629 0.27131918 -0.015732935
0.58199996 -0.30090517 -0.0063218973
0.59268188 -0.30315733 -0.0043471553
0.6041463 -0.30623531 -0.0017101578
0.5666216 -0.28941461 -0.013070665
0.57768124 -0.29146081 -0.009491507
0.59217334 -0.29239443 -0.0054315454
0.60216284 -0.29226211 -0.0017268817
0.57682735 -0.27834779 -0.012014107
0.59156758 -0.27715072 -0.0064217132
0.60203636 -0.27671069 -0.0019278298
0.57892948 -0.26263815 -0.012743855
0.59169173 -0.26232293 -0.0074838251
0.60198253 -0.26411521 -0.0024466442
0.56899995 -0.24138829 -0.013983993
0.57822728 -0.2468991 -0.011134926
0.59189141 -0.2480084 -0.0042465609
0.6002 -0.25220367 -0.00070934772
0.56697911 -0.23199248 -0.013475864
0.57741898 -0.23185903 -0.0083448188
0.5887199 -0.23408088 -0.0025340139
0.5675 -0.22426781 -0.013947127
0.57625932 -0.22308972 -0.010439198
0.58659995 -0.22339204 -0.0014506147
0.37314615 -0.13929717 -0.0019993519
0.3790338 -0.14088732 -0.0096156197
0.37344819 -0.13202514 -0.0015952627
0.3787654 -0.12704103 -0.0079284171
0.38076046 -0.1124835 -0.007514081
0.38352838 -0.097508006 -0.0076285158
0.38576812 -0.082616508 -0.0074749831
0.38999999 -0.076189905 -0.014513809
0.38705891 -0.06855122 -0.0046684458
0.39164522 -0.066206455 -0.011467473
0.38833323 -0.058571596 -0.0026991135
0.39372832 -0.058128141 -0.010627739
0.56689191 -0.048228975 -0.012779753
0.57696301 -0.048910573 -0.0050416323
0.58499998 -0.046159264 -0.0011633176
0.56720012 -0.038617205 -0.012961977
0.57738894 -0.037059136 -0.0071267919
0.58664107 -0.03785418 -0.0014209431
0.56899989 -0.022783842 -0.01444302
0.57750237 -0.022204211 -0.0078977942
0.58522224 -0.025035147 -0.0011637604
0.5669592 -0.0059129386 -0.013269461
0.57757586 -0.008415645 -0.0073750177
0.58642852 -0.0048570833 -0.0019537779
0.56603509 0.0069018351 -0.013163648
0.57799041 0.0072664111 -0.0087462906
0.589854 0.0083516613 -0.0031490778
0.56701708 0.023063455 -0.01322758
0.57753515 0.023076769 -0.008581508
0.58951122 0.021862693 -0.0030355072
0.56672853 0.037311647 -0.0121739
0.57760328 0.037141491 -0.0062195738
0.58951277 0.038552083 -0.0015466297
0.56810725 0.049765095 -0.013666546
0.57532078 0.053314138 -0.0086705172
0.58880979 0.051696751 -0.0021395774
0.56564653 0.068809837 -0.012439562
0.57706708 0.067145169 -0.0067209853
0.58689481 0.065963991 -0.0015149522
0.5650661 0.081477106 -0.011982908
0.57830834 0.08265385 -0.0056260112
0.58674997 0.084367007 -0.0011659967
0.56726187 0.097185239 -0.013635339
0.57688642 0.097690731 -0.007896089
0.58653176 0.09742967 -0.0016581714
0.56541181 0.11262554 -0.013383521
0.57777369 0.11272568 -0.0077499696
0.58665299 0.11258657 -0.0016193574
0.56413293 0.1278403 -0.012129256
0.57741147 0.12714002 -0.006078287
0.58544111 0.12724324 -0.0012475543
0.56571436 0.14194283 -0.011967277
0.57695895 0.14267926 -0.0057389988
0.58593762 0.14286926 -0.0011651901
0.56844449 0.15481128 -0.013154417
0.57540321 0.15773164 -0.0064157192
0.56639606 0.17480512 -0.0097381743
0.57238269 0.17000495 -0.0056592547
0.56530482 0.18662705 -0.0097098211
0.57123661 0.18932129 -0.0031595908
0.56433374 0.20224369 -0.011879424
0.57484668 0.20291445 -0.0047575161
0.55399996 0.22224569 -0.014509202
0.56274706 0.21822681 -0.010666193
0.57452679 0.21649645 -0.0040600658
0.55399996 0.22582158 -0.014509201
0.5626049 0.23241307 -0.0092806788
0.57355547 0.23249951 -0.0020403734
0.56412393 0.24766839 -0.0093097175
0.57369554 0.2476902 -0.0021634442
0.56423455 0.26276994 -0.010216278
0.57297814 0.26286423 -0.002898548
0.55334991 0.2810069 -0.01440227
0.56251103 0.27709553 -0.010185243
0.57239574 0.27739531 -0.0029904384
0.56445658 0.28781918 -0.0080801928
0.57350016 0.29011473 -0.0026624026
0.6135 -0.31669587 0.0027393515
0.62417012 -0.31884602 0.0068357517
0.63311529 -0.32317105 0.01229895
0.61024535 -0.30613384 0.0019966019
0.61987787 -0.30744264 0.0091617256
0.6092279 -0.292348 0.0032404654
0.61994475 -0.29237181 0.010880545
0.60855889 -0.27839285 0.0027724919
0.62195206 -0.27733406 0.010150233
0.60937351 -0.26246393 0.0030475701
0.62139297 -0.26288044 0.010622769
0.5983333 -0.24176453 0.00074090203
0.60706389 -0.24771765 0.0043659201
0.61908233 -0.24887356 0.011385917
0.5940358 -0.23305227 0.001079671
0.60368419 -0.23812918 0.0049368138
0.61533332 -0.23969595 0.012179585
0.58824992 -0.22297645 0.00072841544
0.36912522 -0.13971555 0.0079695247
0.37098137 -0.12808056 0.0078933099
0.37542638 -0.12280209 0.0018091319
0.37216783 -0.11294799 0.01050528
0.37628847 -0.11190427 0.003144295
0.372866 -0.1003967 0.012656986
0.37726435 -0.096783258 0.0061290991
0.37923396 -0.082492687 0.0074820882
0.38118374 -0.067678496 0.0072202575
0.38487139 -0.058313508 0.0037056608
0.58399999 -0.052677087 0.00072314549
0.59174997 -0.048173029 0.0026558696
0.60679317 -0.048737571 0.0095433937
0.61608338 -0.050268125 0.014016241
0.5930106 -0.037681706 0.0026355032
0.6070978 -0.03772445 0.0091618607
0.61757135 -0.036800675 0.013754643
0.59244621 -0.022445608 0.0035098835
0.60737497 -0.022979071 0.009770019
0.61756748 -0.021570347 0.013437817
0.59393942 -0.0077624521 0.0033253599
0.6066432 -0.0067672748 0.010054231
0.61670578 -0.0096483612 0.013846007
0.59579432 0.0076223714 0.0029201116
0.60553151 0.0073579657 0.010325736
0.59664363 0.021746587 0.0021997273
0.60623813 0.022541754 0.0091089364
0.61514282 0.026407678 0.014160234
0.59597939 0.0362215 0.0014391702
0.60788006 0.037947629 0.0085492311
0.61519998 0.032365214 0.014161549
0.59547353 0.053811245 0.0016600257
0.60688907 0.052143108 0.0087657738
0.59387714 0.067603894 0.0032339646
0.6052565 0.067048758 0.010448853
0.61699998 0.074277498 0.014202982
0.59378076 0.081656367 0.0022176066
0.60642046 0.082836382 0.0081846137
0.61747211 0.083278172 0.013439815
0.59480846 0.098338865 0.0019279749
0.60669512 0.097692721 0.0078951167
0.61647815 0.095880032 0.013002828
0.59407717 0.11338268 0.0037182958
0.60580671 0.11153324 0.010674114
0.59279346 0.12759481 0.0053054648
0.60338461 0.12737681 0.01273332
0.56406355 0.14719844 0.012314812
0.57737178 0.14520106 0.010168958
0.59196883 0.14137413 0.0064576524
0.55040532 0.15959747 0.012597951
0.56151021 0.15716396 0.0068599689
0.57655001 0.15373072 0.0025562074
0.58627272 0.15107879 0.0018010018
0.5501169 0.17181726 0.012531
0.56265068 0.17294781 0.0052851918
0.55244446 0.18269543 0.013458938
0.56326938 0.18672797 0.007600185
0.57161105 0.19077946 0.0019368612
0.56704354 0.19752277 0.012693845
0.5770753 0.20332828 0.0061579472
0.5804289 0.21682803 0.0038650159
0.590222 0.21969897 0.010767833
0.60099995 0.22461347 0.014804329
0.58016878 0.23180394 0.0023598552
0.59175253 0.23250367 0.0084209964
0.60300004 0.23370494 0.013674416
0.58057541 0.24792752 0.0019089777
0.59249991 0.24799387 0.0068164133
0.60466188 0.24761017 0.012097681
0.58055907 0.26317295 0.0025124219
0.59108317 0.2616069 0.0077762064
0.60340029 0.26290429 0.012921355
0.5800094 0.27677593 0.0031169374
0.59198225 0.2776463 0.0096642086
0.60186964 0.27616975 0.013940119
0.58068931 0.29180789 0.0026611576
0.59156209 0.29337463 0.0096913939
0.60000014 0.29007795 0.014295666
0.58399999 0.30024791 0.0049631968
0.58899999 0.30090648 0.0094283037
0.64200002 -0.33104908 0.021315068
0.64963639 -0.33425495 0.025630562
0.63972563 -0.32278511 0.021522285
0.64674997 -0.32525265 0.028128255
0.62680006 -0.30576149 0.016249977
0.63705093 -0.3075802 0.022260956
0.64956862 -0.30674413 0.028210966
0.62687498 -0.29603201 0.015820779
0.63728803 -0.29256025 0.01947205
0.65028268 -0.29207611 0.02665861
0.63742363 -0.2777133 0.018263375
0.65054739 -0.27768466 0.02566297
0.65999997 -0.27147323 0.029035971
0.62849998 -0.25750312 0.015481753
0.6365608 -0.26266786 0.018471664
0.6492188 -0.2639257 0.024135394
0.65999997 -0.26827812 0.029035971
0.62641174 -0.24806102 0.016144967
0.63433331 -0.25255165 0.018087847
0.64699996 -0.25370178 0.021991981
0.35900003 -0.14655465 0.027716041
0.36173823 -0.14084619 0.022612199
0.36466879 -0.12774046 0.02249405
0.36652935 -0.1124708 0.022309387
0.36883682 -0.097520649 0.022464322
0.375 -0.090707451 0.015287643
0.37106577 -0.082726091 0.02355581
0.37522221 -0.080903023 0.016140996
0.37244439 -0.068311378 0.02542671
0.3757357 -0.067119494 0.018590229
0.37387773 -0.05789924 0.026437849
0.375 -0.058887683 0.021287546
0.62123811 -0.049372636 0.017173968
0.63699985 -0.049052685 0.025386725
0.62406009 -0.037807636 0.018250847
0.63569188 -0.037295468 0.025820771
0.62493861 -0.022931995 0.017675199
0.63615817 -0.022478344 0.024974773
0.64499998 -0.022270871 0.02941671
0.62272 -0.0068145278 0.018284498
0.63540024 -0.0081675081 0.025664516
0.62059134 0.0076112114 0.018805597
0.63420492 0.0076161111 0.026328703
0.62188053 0.023002174 0.019370465
0.63439447 0.02161088 0.026835579
0.62199235 0.037100166 0.019471632
0.63302481 0.038536206 0.027432015
0.61349994 0.058510438 0.015607162
0.62119287 0.052144919 0.018983012
0.63355905 0.052141335 0.026592026
0.61373335 0.064641729 0.015447993
0.62186444 0.067461424 0.019932762
0.63336092 0.067798063 0.026874183
0.62486672 0.082475089 0.01809966
0.63655573 0.082875758 0.025563262
0.62376833 0.098200358 0.018375365
0.63635838 0.096803263 0.025734056
0.61270589 0.11534131 0.01544232
0.62134522 0.11248855 0.019480538
0.63622957 0.11238723 0.026513122
0.64499998 0.11095466 0.029416703
0.56649995 0.13401528 0.029035134
0.57599986 0.13349456 0.027062297
0.59264702 0.13403776 0.024263009
0.6076991 0.13055058 0.019493314
0.62159115 0.12758513 0.023024224
0.63282967 0.12613033 0.027734624
0.55011433 0.14601348 0.02432498
0.56040829 0.14048851 0.022193126
0.57742375 0.13801505 0.019713422
0.59095448 0.13673548 0.017978402
0.61299998 0.13562012 0.028946295
0.54484707 0.15730292 0.02214998
0.55533332 0.15108953 0.015471405
0.54409796 0.17240481 0.022373203
0.5497871 0.18620116 0.023415724
0.55665004 0.19200559 0.019186839
0.55328572 0.1958757 0.027783291
0.56098104 0.19776525 0.021105606
0.57885712 0.20740394 0.017731773
0.59523803 0.21784453 0.017640773
0.60476464 0.22314776 0.0194415
0.60977775 0.23135725 0.018177833
0.62072837 0.23413809 0.0241806
0.63050002 0.23691057 0.029518535
0.61200017 0.24788444 0.016113406
0.62235737 0.24753995 0.022964898
0.63146669 0.24771506 0.029309701
0.61199993 0.2613399 0.016357174
0.62182939 0.26224646 0.022086162
0.63200003 0.26300359 0.028537732
0.60906243 0.27824235 0.016785253
0.62247008 0.27748114 0.02200938
0.63344187 0.2776483 0.027845893
0.60759801 0.292997 0.018591512
0.62186384 0.29216489 0.024384927
0.6323334 0.29097268 0.028604226
0.59999996 0.3007282 0.015747745
0.75650001 -0.39081964 0.043351546
0.73995233 -0.37966833 0.036987063
0.75708008 -0.3830843 0.042496264
0.7414999 -0.36809748 0.040104114
0.76005262 -0.369019 0.043183673
0.7295 -0.3467533 0.04092218
0.74224997 -0.35531721 0.041635171
0.759875 -0.35268608 0.044463836
0.76599997 -0.34906566 0.044822242
0.69699997 -0.33111924 0.036848795
0.71499991 -0.33678836 0.040107604
0.73199999 -0.34361225 0.04283274
0.74399996 -0.33543855 0.044735305
0.759 -0.34465098 0.044412635
0.6493637 -0.3193461 0.031044494
0.67099994 -0.31551924 0.036015537
0.676 -0.31950665 0.034647897
0.69549996 -0.32872438 0.03733056
0.71699995 -0.31516629 0.044268668
0.72700006 -0.32308623 0.044180371
0.65626663 -0.30280283 0.033781368
0.66422719 -0.3099741 0.033959024
0.685 -0.30496266 0.040082552
0.71200001 -0.31067061 0.04395996
0.65631264 -0.29359391 0.032894075
0.66561097 -0.29171604 0.036447782
0.68023527 -0.29183057 0.041356899
0.65846676 -0.27923837 0.030668842
0.66318196 -0.27685907 0.035945594
0.67733335 -0.27897584 0.042912409
0.66238093 -0.26876169 0.034593388
0.36763045 -0.14176346 0.034391068
0.38038254 -0.14184743 0.041717257
0.36583263 -0.12752175 0.033696905
0.38305232 -0.12727405 0.041688412
0.38999999 -0.12328519 0.044843897
0.36550653 -0.11200514 0.033448867
0.38260815 -0.11237216 0.041820008
0.38999996 -0.11730651 0.044529285
0.36686537 -0.097604677 0.033858094
0.38335428 -0.099527791 0.042355046
0.39159995 -0.095468611 0.044606127
0.36933988 -0.082669891 0.034693174
0.38173494 -0.081873707 0.042479511
0.37065184 -0.067742839 0.03486127
0.37890223 -0.065561734 0.041891031
0.37381825 -0.058587324 0.03111287
0.38036183 -0.056317486 0.038530786
0.6432941 -0.047797553 0.031476978
0.65300006 -0.047329422 0.036781341
0.66433334 -0.045986902 0.043161169
0.64253324 -0.039461989 0.030548697
0.65174985 -0.037247956 0.035207711
0.66421205 -0.037077766 0.042216454
0.64319998 -0.018057687 0.030372366
0.65206802 -0.022492636 0.03498999
0.66453212 -0.022839308 0.042367473
0.64234465 -0.0061329138 0.031047901
0.65251023 -0.007793556 0.035898868
0.66506886 -0.0074192304 0.042566914
0.64136851 0.0080878604 0.030559314
0.6526081 0.0075000147 0.035433467
0.66351521 0.0073559126 0.042090453
0.64015824 0.025633052 0.036056567
0.65125471 0.020358792 0.038790923
0.65999997 0.015552268 0.042346671
0.63345301 0.037404593 0.037573494
0.6337539 0.052539319 0.03742405
0.63902956 0.067252971 0.037221979
0.64499998 0.07400538 0.038262274
0.64240903 0.078942046 0.031419013
0.65099239 0.082339033 0.037470479
0.66194439 0.087878555 0.042118132
0.64400005 0.10091014 0.030929659
0.65185624 0.097022645 0.034781381
0.66349983 0.09754198 0.042041697
0.64292306 0.11777889 0.031078251
0.65159994 0.11235265 0.034912974
0.66286969 0.11239655 0.042076986
0.56693321 0.13411784 0.03454908
0.57399988 0.13205914 0.038175154
0.59046674 0.1321906 0.036443058
0.60049999 0.13430814 0.031747445
0.64013994 0.12818491 0.031531241
0.65198994 0.1275043 0.037407786
0.66187507 0.12657206 0.042896278
0.54917884 0.14459871 0.037529126
0.5599153 0.13728112 0.037494093
0.57099998 0.13508144 0.042624485
0.62274998 0.13651793 0.032797903
0.63667637 0.13828577 0.036445152
0.65365982 0.13928144 0.04020112
0.66176921 0.13831639 0.043651816
0.54303926 0.15736721 0.037535723
0.5429638 0.17241636 0.037279472
0.54894465 0.18705922 0.036762986
0.55576926 0.19329123 0.043074757
0.55318898 0.19678117 0.034566361
0.55647999 0.1975579 0.041471455
0.63244432 0.23670578 0.032077551
0.63821805 0.24831074 0.034992784
0.65209371 0.24991794 0.042139445
0.63883895 0.26204866 0.034002125
0.65010279 0.26322573 0.040766422
0.64063948 0.27743936 0.032255854
0.65077162 0.27817765 0.038686868
0.65999991 0.27914712 0.043411519
0.63910127 0.29206976 0.033080373
0.65093046 0.28890768 0.039954208
0.7622366 -0.39260152 0.05292853
0.76499993 -0.39140481 0.057380676
0.76165187 -0.38273543 0.049280524
0.76553595 -0.38188425 0.0568964
0.76222914 -0.36826092 0.048037335
0.76770335 -0.36691213 0.055499274
0.76024997 -0.35440934 0.04632568
0.77020669 -0.35288802 0.053890523
0.74388885 -0.33298695 0.047396678
0.75837505 -0.33686402 0.051111087
0.76719594 -0.33859438 0.056929763
0.71699995 -0.31516629 0.04542549
0.72775 -0.32048219 0.046693027
0.74371427 -0.3236421 0.050636843
0.75983328 -0.32372397 0.056676805
0.71200001 -0.31067061 0.045108717
0.72699994 -0.31004202 0.048880905
0.74319053 -0.30833584 0.053769182
0.75424999 -0.31327313 0.056919228
0.38659996 -0.14144886 0.046055626
0.3915225 -0.13775355 0.049180031
0.38899997 -0.13207103 0.045670334
0.39327392 -0.12647556 0.048824411
0.389 -0.10696217 0.045356534
0.39661956 -0.11253547 0.050305344
0.389 -0.10445128 0.045356531
0.39767906 -0.097645462 0.050841384
0.38799998 -0.082054965 0.045481019
0.3971841 -0.082667552 0.051874004
0.38619146 -0.064589202 0.047385015
0.39384654 -0.070489801 0.050373022
0.38255391 -0.05713601 0.046990484
0.66649997 -0.046136878 0.047067516
0.66996086 -0.038194481 0.047152903
0.68080729 -0.034533083 0.054324158
0.67153144 -0.02332351 0.046541695
0.68195289 -0.022376224 0.0537601
0.67132157 -0.0074733472 0.046323624
0.68076897 -0.0074541559 0.053708442
0.66747057 0.010064162 0.051117301
0.67864686 0.0038119121 0.05495023
0.63968235 0.026944576 0.052631542
0.65066135 0.019654309 0.052528106
0.65999997 0.015552269 0.046073668
0.6331588 0.037508897 0.052339084
0.62768292 0.051871616 0.058463972
0.63167226 0.052665621 0.051176619
0.63658661 0.067309283 0.052502148
0.65099978 0.078852557 0.052543432
0.66518158 0.086409815 0.051876571
0.67499995 0.089973703 0.057466846
0.6712606 0.097311966 0.048025105
0.68058419 0.098030694 0.055402856
0.67007798 0.11265966 0.047609922
0.67963624 0.11256015 0.05491237
0.56844199 0.13347325 0.053673957
0.57291508 0.13184527 0.049713489
0.66950011 0.12740992 0.048365481
0.68039989 0.12699446 0.056068826
0.5502767 0.14661534 0.050388522
0.56123942 0.1400615 0.053346481
0.66635722 0.14001758 0.04721386
0.68254548 0.14089315 0.054467104
0.69086939 0.14584376 0.058358803
0.54753298 0.15679151 0.052284312
0.55549997 0.16293842 0.059094038
0.68766659 0.15158509 0.054662008
0.69335717 0.15332001 0.058391187
0.54881114 0.17206052 0.050964121
0.55625439 0.17319208 0.058316726
0.55173343 0.18305412 0.048668221
0.56077379 0.18901031 0.053721152
0.56513494 0.19789673 0.052012388
0.56999999 0.19946072 0.057953961
0.65999991 0.25198886 0.045541231
0.66750813 0.26242632 0.047791298
0.67991012 0.26314053 0.055961214
0.66948783 0.27679127 0.046977624
0.68285704 0.27720895 0.054584965
0.69 0.28459829 0.058187257
0.66970277 0.29090014 0.046813689
0.68440002 0.29000854 0.051149119
0.69429559 0.29261079 0.055624135
0.67999995 0.30022511 0.049664076
0.6975556 0.3023333 0.05351913
0.70893335 0.30429897 0.057727642
0.72299999 0.3116264 0.059803616
0.72899997 0.31656528 0.059123725
0.76162797 -0.39220285 0.066847742
0.76499999 -0.39058182 0.060809191
0.76260239 -0.3853817 0.069005035
0.76570547 -0.37929657 0.066375002
0.76251853 -0.36406958 0.07181976
0.76683897 -0.36829758 0.065993764
0.75978023 -0.35209036 0.070554361
0.76791072 -0.35367897 0.063050359
0.75862443 -0.3372772 0.068825029
0.76552176 -0.3390739 0.061709691
0.75692439 -0.32256672 0.067607522
0.74664855 -0.3058629 0.072826356
0.75394714 -0.30931816 0.066739701
0.74249995 -0.29881752 0.07399483
0.75299996 -0.29899237 0.06430836
0.68699998 -0.030926961 0.060705326
0.6875807 -0.022628872 0.061025262
0.69014287 -0.018419838 0.063846402
0.68751717 -0.0062212748 0.062644459
0.69071424 -0.012543404 0.064855263
0.65688884 0.013888947 0.070225231
0.66544992 0.011805802 0.06327983
0.68028569 0.0044913096 0.063954227
0.63973212 0.025931446 0.068131343
0.65129977 0.018746819 0.06712696
0.62771004 0.042182814 0.067991443
0.63195515 0.035044201 0.067175448
0.62565613 0.05209351 0.067294329
0.62857139 0.060673319 0.069521651
0.63447082 0.067926966 0.067439079
0.64093435 0.078092478 0.069282241
0.64919358 0.079677984 0.063186668
0.6649 0.085950084 0.06250491
0.67499995 0.08997371 0.064545721
0.68361771 0.096304663 0.061664134
0.69289041 0.10092279 0.066928037
0.68748271 0.11368898 0.062604882
0.69195765 0.11173106 0.068700522
0.56899995 0.13414922 0.060835902
0.56999999 0.13369513 0.061632559
0.68684447 0.12480202 0.063046329
0.69176841 0.12884186 0.068712726
0.55399996 0.14916286 0.060796354
0.56199205 0.14399493 0.063650899
0.56999999 0.13645452 0.064391509
0.639 0.14343464 0.068835601
0.69564539 0.14277893 0.067896567
0.5534761 0.15483877 0.061344884
0.56064624 0.15778628 0.066570796
0.5704 0.1625538 0.073409572
0.69372821 0.15376207 0.066288337
0.5639537 0.172866 0.065730914
0.57151723 0.16989672 0.072521433
0.56516284 0.18609504 0.063757665
0.56899995 0.1952085 0.062671974
0.56999999 0.19702326 0.06112675
0.68084258 0.26303402 0.064191163
0.68483049 0.27623808 0.063273013
0.69 0.28459826 0.062083662
0.6934166 0.28843665 0.062016036
0.7148 0.30498317 0.061199881
0.72299999 0.3116264 0.060970116
0.72899997 0.31656528 0.060888004
0.76143593 -0.39213219 0.082174532
0.76539987 -0.39140329 0.086773805
0.76232153 -0.38710138 0.078037053
0.76749533 -0.38267085 0.083095685
0.74599999 -0.36041641 0.089389168
0.75860012 -0.36617601 0.081989706
0.76581252 -0.37315539 0.079792336
0.73028576 -0.34726959 0.089189246
0.74386835 -0.35126218 0.084460482
0.75260776 -0.35346398 0.078320421
0.73089993 -0.33901799 0.089171201
0.7425155 -0.33775184 0.083755538
0.75254291 -0.33766153 0.07678175
0.74205798 -0.32222873 0.083404988
0.75124997 -0.32590351 0.076306194
0.74116927 -0.30781248 0.082898825
0.73879421 -0.29384986 0.083628818
0.74028569 -0.28136724 0.08904513
0.63840002 0.013703771 0.086586021
0.65099996 0.013764435 0.076953225
0.63581276 0.02278552 0.083143815
0.64648008 0.017358907 0.077212319
0.62673646 0.039322086 0.083449744
0.63071871 0.032433756 0.080390431
0.62352169 0.052453369 0.082373254
0.62571418 0.064530589 0.084036253
0.63202 0.070765972 0.080527849
0.63491118 0.07668516 0.081097417
0.76177269 -0.39228511 0.093117096
0.76499999 -0.39119905 0.090431571
0.73399997 -0.37771541 0.10453077
0.74200004 -0.38025191 0.10136365
0.75675964 -0.38274997 0.095347084
0.76622224 -0.38426787 0.091056406
0.73032606 -0.36534703 0.10239017
0.74014544 -0.36699548 0.096920684
0.75450003 -0.37074491 0.092026569
0.72642273 -0.35182244 0.099231355
0.73799992 -0.35774237 0.093282737
0.71899998 -0.33460924 0.10471468
0.72437042 -0.33681455 0.096895993
0.73499995 -0.33078778 0.090442821
0.72877681 -0.32289654 0.098573685
0.73575008 -0.31995738 0.091907278
0.73121804 -0.30927286 0.10219273
0.73685575 -0.30692363 0.095347218
0.73252118 -0.29088998 0.10083824
0.73637336 -0.29367536 0.094502196
0.73268318 -0.28053871 0.10103081
0.7384249 -0.27612472 0.096447781
0.74130684 -0.26472762 0.10121372
0.74343234 -0.2465959 0.10347425
0.7460258 -0.23343331 0.10291018
0.7486667 -0.22397974 0.10359971
0.75189477 -0.21746984 0.10401456
0.75466669 -0.20709857 0.10463219
0.6396296 0.013618995 0.098549835
0.62691301 0.027096445 0.099221863
0.63373369 0.019787826 0.096886218
0.61362493 0.042555895 0.10384695
0.62152308 0.037391003 0.097331516
0.61357427 0.050414849 0.10244916
0.61673599 0.052834075 0.095621355
0.61399996 0.060540542 0.10428213
0.61959559 0.067340344 0.097296476
0.63 0.074825883 0.090736315
0.62475002 0.075797334 0.096436143
0.63 0.075842507 0.090736315
0.72993088 -0.37653503 0.11207041
0.73499995 -0.38000911 0.10585906
0.72759062 -0.36768267 0.11229081
0.71637124 -0.34851199 0.11535414
0.72351038 -0.35417593 0.11082684
0.70349997 -0.33364075 0.11891536
0.71185309 -0.33710739 0.11244261
0.72049999 -0.34330085 0.10624062
0.70300001 -0.32829753 0.11883086
0.71132046 -0.32226548 0.11266431
0.7215333 -0.32103842 0.10531598
0.71646756 -0.31125444 0.11442097
0.72444659 -0.30564412 0.11087449
0.72627485 -0.29209107 0.11249059
0.73091388 -0.2783972 0.1126347
0.73550004 -0.27114177 0.11199538
0.73870319 -0.26215056 0.11230999
0.74334133 -0.24746439 0.11253598
0.74690807 -0.23250635 0.1125004
0.75 -0.22558942 0.11225466
0.74866664 -0.22397974 0.10541157
0.75257832 -0.21725415 0.11279621
0.75889575 -0.20259567 0.11300348
0.764 -0.19219843 0.10880315
0.76658839 -0.18709329 0.1145016
0.76927596 -0.1721345 0.11568975
0.77543896 -0.16209336 0.11607726
0.78487098 -0.15451956 0.11741187
0.7923333 -0.14754085 0.11795153
0.79792297 -0.13971478 0.11769272
0.79977781 -0.13416004 0.1161928
0.62783331 0.014287733 0.11422651
0.63504177 0.01385273 0.10870259
0.61192292 0.026125856 0.11559587
0.62136084 0.022355512 0.11073715
0.63160717 0.017939307 0.10734302
0.59770572 0.042364515 0.11790755
0.60787481 0.037291385 0.11238773
0.61680949 0.03320466 0.10636903
0.5971539 0.051692333 0.11740225
0.60715306 0.052855406 0.11038327
0.60761857 0.065388009 0.11219176
0.61499995 0.06262397 0.10544422
0.73149997 -0.37697616 0.12520227
0.7184 -0.36429796 0.13285038
0.72636187 -0.36868343 0.12699671
0.70371431 -0.34663838 0.13346821
0.71168542 -0.35250235 0.12825431
0.72155553 -0.35856849 0.1237122
0.70006937 -0.33626315 0.12760583
0.70599997 -0.34357738 0.12280577
0.7010588 -0.32517976 0.12879024
0.70806158 -0.31866506 0.12622535
0.71492797 -0.30871853 0.12855656
0.72054821 -0.30280972 0.12297744
0.71899992 -0.29900444 0.13175833
0.72334725 -0.29201078 0.12731652
0.72943121 -0.27746347 0.12748146
0.73550004 -0.27048242 0.12195111
0.73307997 -0.26772207 0.132406
0.73856056 -0.26179904 0.12717423
0.74469399 -0.24765116 0.12772165
0.7477594 -0.23304093 0.12766856
0.75 -0.22644375 0.12830582
0.75166416 -0.21738793 0.12747802
0.75745809 -0.20224477 0.12742119
0.76227266 -0.19060495 0.13009511
0.76626939 -0.18560705 0.12548034
0.77001268 -0.17245083 0.12768041
0.77612764 -0.16004167 0.12832899
0.78321332 -0.1535735 0.12597254
0.78973192 -0.14577596 0.12843212
0.79764056 -0.13907534 0.12674378
0.79987502 -0.13475017 0.12972046
0.61266661 0.013942584 0.13370979
0.61985177 0.014124806 0.12699658
0.5959667 0.026543159 0.13145475
0.6071313 0.022685518 0.12742946
0.61811614 0.018063297 0.12413109
0.59418082 0.038127322 0.12832895
0.60237503 0.03290337 0.1227617
0.59380096 0.052353173 0.12756605
0.597238 0.062354349 0.12994018
0.6031903 0.068132773 0.12697002
0.71128428 -0.36442584 0.14165191
0.70319515 -0.34784603 0.1422877
0.70665598 -0.35491753 0.14290388
0.69911617 -0.33719173 0.14248961
0.70049918 -0.32245666 0.14233759
0.70499998 -0.31557977 0.13964319
0.70185721 -0.31400996 0.14880712
0.71061814 -0.30737841 0.14245181
0.71814215 -0.29451728 0.14425205
0.72174364 -0.28977379 0.13937287
0.71807808 -0.2780152 0.14748125
0.72429579 -0.27698967 0.14026995
0.71899998 -0.26828235 0.14956991
0.72831792 -0.26305103 0.14295767
0.73573685 -0.25760293 0.13714011
0.73159993 -0.24963388 0.14715184
0.73815566 -0.24669598 0.1405119
0.73399997 -0.23854348 0.14953229
0.74160564 -0.23237622 0.14248215
0.74656624 -0.21875748 0.14471811
0.75064147 -0.21519791 0.1382744
0.74899995 -0.20957623 0.14715007
0.75319088 -0.2023727 0.1424298
0.75998271 -0.1880957 0.14287542
0.76557136 -0.18182783 0.13778858
0.76305401 -0.17560223 0.14719789
0.76782787 -0.17172962 0.14100474
0.77315491 -0.15862204 0.1427528
0.78088003 -0.15115716 0.14184706
0.78808445 -0.14357942 0.14275599
0.79588467 -0.13654736 0.14055361
0.79816657 -0.13181134 0.14385977
0.60800004 0.013836384 0.13857152
0.59394878 0.024164453 0.14337742
0.60230583 0.017591843 0.14036049
0.58921731 0.037377559 0.14249088
0.58399993 0.048158634 0.14818327
0.58904779 0.052785084 0.14211342
0.59460735 0.066816404 0.14381434
0.60065216 0.071761593 0.13812265
0.59899998 0.075010352 0.14522424
0.60074991 0.076199338 0.14290234
0.70759106 -0.36362439 0.15687613
0.70284456 -0.35135671 0.16139033
0.70554537 -0.3530587 0.1552527
0.70217532 -0.33725229 0.15815802
0.70499998 -0.3440209 0.1544302
0.69998109 -0.32231387 0.15748487
0.69979817 -0.30815068 0.15837757
0.70952576 -0.30405968 0.15322736
0.70290476 -0.29795033 0.16247568
0.71035242 -0.29213467 0.15701549
0.71243179 -0.27727306 0.15756854
0.71757483 -0.26654229 0.15884943
0.72298348 -0.25961784 0.1567125
0.72882766 -0.24760765 0.157508
0.73258936 -0.23397984 0.15863861
0.73560476 -0.22782817 0.15421779
0.74171919 -0.21791929 0.15752046
0.74786144 -0.20687485 0.15915735
0.75188738 -0.20021887 0.15651874
0.75591367 -0.1876051 0.15766457
0.75976282 -0.1721653 0.15718296
0.76372731 -0.16378433 0.15805104
0.77099973 -0.15654463 0.15751874
0.77999997 -0.15091135 0.15198192
0.778 -0.14989668 0.16477226
0.78757542 -0.14336324 0.15776989
0.79575002 -0.13603424 0.15703146
0.79845446 -0.13190269 0.15794967
0.78965211 -0.11087398 0.16330238
0.79739994 -0.11284681 0.16038817
0.78200001 -0.10397709 0.16372687
0.79799998 -0.10417294 0.15742047
0.59200001 0.014905218 0.15546322
0.58882654 0.022965848 0.15668799
0.58399999 0.044389077 0.16420126
0.58739948 0.037428573 0.15765947
0.58399975 0.055314232 0.16038851
0.58565193 0.051691722 0.15699768
0.58361661 0.066546321 0.15967412
0.58651745 0.066299275 0.15296888
0.70156521 -0.36144105 0.16924486
0.70499998 -0.36381596 0.16591854
0.68659467 -0.34950522 0.17747664
0.69580501 -0.35187146 0.17061456
0.68702441 -0.33750433 0.1771612
0.69563192 -0.33758578 0.16983424
0.68795907 -0.32559901 0.1773241
0.69447166 -0.3219296 0.1712999
0.69627821 -0.3074142 0.17283267
0.70066833 -0.2931065 0.17331237
0.70556748 -0.28918359 0.16721471
0.7016983 -0.27803463 0.17611971
0.70718229 -0.27660936 0.16881229
0.70324439 -0.2648344 0.17760701
0.71026158 -0.26206794 0.17111506
0.72238463 -0.25731653 0.1670676
0.71314543 -0.24885103 0.17632812
0.72540271 -0.24708995 0.17005563
0.7163946 -0.23296441 0.17753918
0.72722083 -0.23200186 0.1706467
0.71772718 -0.22293445 0.17874546
0.72783893 -0.21828669 0.17591868
0.73809475 -0.21623603 0.1695583
0.73199999 -0.20790757 0.17846762
0.74310714 -0.20300907 0.1733828
0.75124133 -0.1974522 0.16888379
0.7467894 -0.19227409 0.17851609
0.75433284 -0.18722224 0.17240167
0.75841874 -0.1721967 0.17274107
0.76270217 -0.16239759 0.17375718
0.7697342 -0.15554857 0.17186268
0.77626383 -0.14597218 0.17546165
0.78465515 -0.14068893 0.17076299
0.79499996 -0.13521178 0.16644867
0.78895158 -0.12806608 0.1748582
0.79741663 -0.12728453 0.16778231
0.78680021 -0.11265737 0.17129847
0.79499996 -0.11917582 0.16644867
0.78014284 -0.10426961 0.16738348
0.58599997 0.014754153 0.17327277
0.58722985 0.022910511 0.17257155
0.58382332 0.040868208 0.17251679
0.585733 0.033811402 0.17237763
0.58354938 0.049992837 0.1730185
0.58575642 0.054335497 0.17232667
0.58399975 0.064629517 0.168033
0.58828306 0.063056931 0.17549638
0.68703902 -0.35025996 0.18780664
0.69 -0.35674328 0.18324344
0.68739074 -0.33748183 0.18754104
0.68773359 -0.32360125 0.18840079
0.69000018 -0.31805122 0.18505254
0.68773323 -0.30777699 0.19377321
0.69277054 -0.30781528 0.18681787
0.68635046 -0.29205552 0.19252774
0.69506305 -0.29234302 0.18538925
0.68705887 -0.28282887 0.19395813
0.69593495 -0.27715036 0.18752691
0.70109373 -0.26451966 0.18787295
0.70509452 -0.2570574 0.18766725
0.70775026 -0.24763316 0.18747698
0.71161288 -0.23262189 0.18715218
0.71608448 -0.21905205 0.18765298
0.7219615 -0.21231306 0.18582624
0.7276144 -0.20316398 0.18735759
0.73689997 -0.19827776 0.1813297
0.73033571 -0.18800892 0.19005273
0.74103743 -0.18700796 0.18371539
0.75107694 -0.18190637 0.18134783
0.73308343 -0.17850456 0.19310606
0.7430988 -0.17608657 0.18984018
0.75492996 -0.17085364 0.18634896
0.76160002 -0.16115507 0.18774821
0.76756781 -0.15379936 0.18705487
0.77483141 -0.14354725 0.18688062
0.78130001 -0.13748206 0.1910001
0.77849996 -0.13428944 0.18371886
0.78285015 -0.12895945 0.18566258
0.78700006 -0.11797656 0.18191549
0.57729405 0.026385495 0.18737602
0.58784747 0.024761721 0.18274905
0.5657692 0.040234763 0.19296998
0.57915139 0.038234979 0.18881269
0.58629084 0.035308979 0.18447834
0.5686363 0.046850558 0.19245037
0.57571083 0.05224096 0.18668103
0.58635712 0.058423713 0.18182336
0.58029032 0.066800542 0.19153999
0.59019518 0.067794397 0.18516862
0.57835293 0.076706573 0.19307639
0.58599997 0.075273655 0.18934566
0.6724999 -0.34628198 0.20253499
0.68300009 -0.34942672 0.1981374
0.66629916 -0.33689016 0.20496505
0.68144161 -0.33741972 0.19831721
0.66950601 -0.32324982 0.20595005
0.6801281 -0.32244235 0.19848058
0.67059612 -0.30784711 0.20644553
0.68043149 -0.30764645 0.19930343
0.67168516 -0.29427484 0.20772025
0.67878467 -0.29206508 0.20082015
0.67326313 -0.28010029 0.20925176
0.68077576 -0.27749911 0.2022137
0.69134772 -0.2730861 0.19627364
0.68284833 -0.26283851 0.20502883
0.69488704 -0.26149243 0.19801891
0.70499998 -0.25585341 0.19594751
0.68601334 -0.24959664 0.2075042
0.69675577 -0.24714576 0.20246387
0.70577091 -0.24542904 0.1969199
0.69880295 -0.23425938 0.20636357
0.70844829 -0.23138399 0.20012164
0.71442997 -0.21936379 0.20294586
0.72128832 -0.21171357 0.20251073
0.72647989 -0.20267189 0.20246117
