# .PCD v0.7 - Point Cloud Data file format
VERSION 0.7
FIELDS x y z
SIZE 4 4 4
TYPE F F F
COUNT 1 1 1
WIDTH 111
HEIGHT 1
VIEWPOINT 0 0 0 1 0 0 0
POINTS 111
DATA ascii
0.46399999 -0.030247441 -0.18134174
0.47017646 -0.033826176 -0.18281771
0.46183714 -0.024263497 -0.18090214
0.45816666 -0.012493474 -0.18017076
0.46013337 0.0091667315 -0.1805965
0.46757141 0.013984619 -0.18235688
0.47120404 0.018342376 -0.18232991
0.48878574 0.025134003 -0.18556963
0.4738 -0.045412969 -0.1714908
0.46399996 -0.030247441 -0.17535271
0.46910229 -0.036987558 -0.17129213
0.46048519 -0.022026477 -0.17233965
0.46518183 -0.02950561 -0.16982917
0.45781237 -0.0072895051 -0.17285699
0.46048376 0.0052210405 -0.17345782
0.46789929 0.011647325 -0.17007044
0.47400701 0.018457044 -0.17444552
0.48410192 0.022863805 -0.17111342
0.49680001 0.029103545 -0.1756493
0.50114286 0.030408697 -0.17766072
0.52229625 -0.10971804 -0.15145804
0.52120757 -0.097839534 -0.15201569
0.52246153 -0.08220984 -0.15163603
0.52399999 -0.073900491 -0.15026075
0.53326082 -0.069606908 -0.15360561
0.47180006 -0.045373607 -0.15714344
0.46344617 -0.031535052 -0.1555839
0.46896735 -0.039033089 -0.15814048
0.46126515 -0.021891652 -0.15766114
0.465 -0.029562265 -0.1641019
0.45957813 -0.0077989325 -0.15742628
0.46530774 -0.00064467266 -0.15237109
0.46356243 0.0016435714 -0.16216826
0.47123188 0.0074410043 -0.15721315
0.48011106 0.014111117 -0.15876293
0.47890916 0.01599228 -0.1545383
0.48384908 0.018843563 -0.16011016
0.54824996 -0.13571075 -0.14350335
0.5218333 -0.12253626 -0.13865681
0.53021139 -0.12617061 -0.14352906
0.542 -0.13328904 -0.14492869
0.5171845 -0.11196449 -0.1419082
0.52599996 -0.11747117 -0.14998561
0.50867313 -0.094423391 -0.13669634
0.51277703 -0.097858742 -0.14313914
0.50868905 -0.087117903 -0.13717113
0.51348311 -0.081355155 -0.14251512
0.51911438 -0.070655979 -0.14077558
0.5312947 -0.064202577 -0.14377159
0.54346669 -0.06138511 -0.14806952
0.53708696 -0.05912729 -0.13841571
0.54563999 -0.057068996 -0.14162347
0.46286893 -0.031880643 -0.14327909
0.46770671 -0.037949029 -0.14130878
0.45992181 -0.022320194 -0.14186694
0.46136123 -0.0083573526 -0.14262663
0.46557134 -0.0010798059 -0.14244381
0.47245854 0.0055204164 -0.14562844
0.4787778 0.01617551 -0.14913777
0.55078948 -0.13718423 -0.12876488
0.56270576 -0.14159463 -0.12873496
0.52153575 -0.12330045 -0.13302445
0.53227282 -0.12840773 -0.12664044
0.5431 -0.13434881 -0.12646794
0.51389819 -0.11171523 -0.12773223
0.50836426 -0.096547045 -0.1288372
0.51045412 -0.097844586 -0.12433111
0.50854921 -0.087382086 -0.1308289
0.51388353 -0.081350029 -0.12638851
0.52047449 -0.069808267 -0.12876052
0.53104556 -0.063821509 -0.12633891
0.54054546 -0.061484132 -0.12257723
0.58899999 -0.060731765 -0.12138475
0.53899997 -0.059490249 -0.1280383
0.54474109 -0.058245033 -0.12788649
0.56024992 -0.05572867 -0.13353552
0.56999999 -0.054173686 -0.13494246
0.46399999 -0.030621812 -0.13455257
0.46796519 -0.03422923 -0.13048543
0.4624804 -0.022179564 -0.12921345
0.46560919 -0.020795116 -0.12379587
0.46272689 -0.010220064 -0.13147935
0.46567988 -0.011632893 -0.12647134
0.54999995 -0.13614392 -0.11733817
0.59499997 -0.14344242 -0.11590137
0.53398132 -0.12582453 -0.11261822
0.54326308 -0.13198683 -0.11256227
0.52052182 -0.11107838 -0.11674127
0.53059316 -0.11206962 -0.11033504
0.5166328 -0.096833609 -0.11789749
0.53366625 -0.098332837 -0.11146124
0.54025924 -0.092983484 -0.10656147
0.52014697 -0.08263316 -0.11634119
0.53226566 -0.082385324 -0.11015175
0.54193556 -0.082039528 -0.10612699
0.52344 -0.073246196 -0.11783821
0.53292179 -0.070490673 -0.11471359
0.54455197 -0.066667378 -0.11145552
0.55766666 -0.060650624 -0.11672473
0.54718184 -0.059263855 -0.11869884
0.55766666 -0.059750728 -0.11672473
0.5366922 -0.12372755 -0.10294434
0.54233336 -0.12899579 -0.10418431
0.53508133 -0.11307381 -0.10151903
0.54099995 -0.10554358 -0.098399706
0.53799993 -0.10110351 -0.1027173
0.54066294 -0.094985388 -0.10128206
0.54596651 -0.081837006 -0.10188218
0.55599993 -0.075946584 -0.099108383
0.55142224 -0.071811415 -0.10327736
0.55783868 -0.070624962 -0.10154688
