# .PCD v0.7 - Point Cloud Data file format
VERSION 0.7
FIELDS x y z
SIZE 4 4 4
TYPE F F F
COUNT 1 1 1
WIDTH 1368
HEIGHT 1
VIEWPOINT 0 0 0 1 0 0 0
POINTS 1368
DATA ascii
0.5072667 -0.11544897 -0.19414879
0.51689661 -0.11265539 -0.18968113
0.53038269 -0.11358721 -0.18252164
0.50647038 -0.094629236 -0.19392115
0.5168525 -0.097888373 -0.18843889
0.52817678 -0.096828103 -0.18201755
0.5070594 -0.085125715 -0.19317101
0.51719826 -0.082194634 -0.1886864
0.52867633 -0.081956536 -0.18233556
0.51765281 -0.067624062 -0.18956262
0.53253937 -0.068456359 -0.18222648
0.49400002 -0.047533065 -0.18868276
0.50386953 -0.051612675 -0.1931354
0.51261681 -0.058151048 -0.19080237
0.53499997 -0.059912086 -0.18189999
0.46399999 -0.030247441 -0.18134174
0.47017646 -0.033826176 -0.18281771
0.49009672 -0.041630164 -0.19173118
0.46183714 -0.024263497 -0.18090214
0.45816666 -0.012493474 -0.18017076
0.46013337 0.0091667315 -0.1805965
0.46757141 0.013984619 -0.18235688
0.47120404 0.018342376 -0.18232991
0.48878574 0.025134003 -0.18556963
0.50407684 0.028962499 -0.19141613
0.50414276 0.031638473 -0.18128429
0.51945126 0.039164107 -0.18956108
0.53160793 0.041256942 -0.18467139
0.54122221 0.039534207 -0.18081234
0.52063787 0.051798381 -0.19278985
0.53151405 0.052696668 -0.18561526
0.5404166 0.05284607 -0.18032658
0.52136266 0.067619115 -0.19328119
0.53083223 0.06688375 -0.18741825
0.54373902 0.068293467 -0.18222167
0.52222353 0.081388816 -0.19387178
0.52935988 0.081702858 -0.1891073
0.54518718 0.083013199 -0.18309969
0.52400005 0.095551543 -0.19396956
0.53167838 0.099132374 -0.19039851
0.54857224 0.096624799 -0.18444751
0.55549997 0.10004061 -0.18035519
0.52127987 0.11288623 -0.19448963
0.53280926 0.11278373 -0.18853569
0.54238588 0.1107564 -0.18125409
0.52245957 0.12767927 -0.19433402
0.53217494 0.12757602 -0.18878877
0.54138905 0.12728746 -0.18172869
0.52399999 0.13580061 -0.19422321
0.53191268 0.14210795 -0.18932609
0.54219335 0.14310108 -0.18192223
0.53240162 0.15744942 -0.18982804
0.54209089 0.15732822 -0.1823106
0.532552 0.17220484 -0.19160682
0.54378009 0.1730404 -0.18394612
0.53388029 0.1873077 -0.19110535
0.54439151 0.18752027 -0.18397784
0.53404689 0.20223214 -0.19173747
0.545802 0.20289811 -0.18503551
0.55573326 0.20811474 -0.18105823
0.53594029 0.21757501 -0.19252914
0.54622644 0.21776104 -0.18619147
0.55710274 0.21800703 -0.18152118
0.5345825 0.23284908 -0.19278142
0.54653543 0.23169681 -0.1875497
0.55863446 0.23309442 -0.18223271
0.53494757 0.24717928 -0.19276604
0.54779476 0.24728775 -0.18869545
0.55858177 0.24749906 -0.18300119
0.53666657 0.26187658 -0.1937923
0.54561931 0.26273251 -0.19133146
0.56027681 0.2633709 -0.18594606
0.56999999 0.26913545 -0.1804651
0.537404 0.27328297 -0.1934506
0.54836035 0.27616856 -0.18933788
0.55896199 0.276346 -0.1841158
0.55676931 0.28597108 -0.18231696
0.52299994 -0.27040103 -0.17950761
0.5340786 -0.27330795 -0.17312726
0.54466319 -0.2749289 -0.1664027
0.52281404 -0.26049706 -0.17879532
0.53144133 -0.26256958 -0.1734798
0.54467481 -0.26262143 -0.16700722
0.52127594 -0.24676041 -0.17810577
0.53128773 -0.24659972 -0.17212455
0.54463959 -0.24683368 -0.16696042
0.52190197 -0.23376109 -0.1783675
0.53286654 -0.23280844 -0.17398892
0.54331106 -0.23111831 -0.16824473
0.52313483 -0.21798401 -0.1787253
0.53214675 -0.21715699 -0.17500474
0.54448682 -0.21825694 -0.16817641
0.52352941 -0.20388612 -0.17954013
0.53189653 -0.20236216 -0.17525911
0.54285622 -0.20341678 -0.16795532
0.52296561 -0.18855429 -0.17914619
0.53314406 -0.18722412 -0.17341195
0.54118204 -0.18657871 -0.16613984
0.53372782 -0.17334577 -0.17547843
0.54420888 -0.17190591 -0.16920395
0.53498679 -0.15759274 -0.17702122
0.54717815 -0.15779945 -0.16970293
0.53425664 -0.14331575 -0.17662036
0.54396474 -0.14239109 -0.16927147
0.53765005 -0.12762877 -0.17623059
0.541493 -0.12826471 -0.16921946
0.5368942 -0.11130089 -0.17417131
0.54035747 -0.11711238 -0.16998957
0.5353083 -0.097354025 -0.17361951
0.53999996 -0.090534888 -0.16922443
0.53551704 -0.084226102 -0.17646235
0.54310924 -0.081027217 -0.17098667
0.53809756 -0.067459054 -0.17924671
0.54772824 -0.067584097 -0.17242448
0.55499995 -0.060360603 -0.16586608
0.4738 -0.045412969 -0.1714908
0.54963201 -0.056375537 -0.17084587
0.55608565 -0.054502584 -0.16599742
0.46399996 -0.030247441 -0.17535271
0.46910229 -0.036987558 -0.17129213
0.46048519 -0.022026477 -0.17233965
0.46518183 -0.02950561 -0.16982917
0.45781237 -0.0072895051 -0.17285699
0.46048376 0.0052210405 -0.17345782
0.46789929 0.011647325 -0.17007044
0.47400701 0.018457044 -0.17444552
0.48410192 0.022863805 -0.17111342
0.49680001 0.029103545 -0.1756493
0.55342853 0.027838696 -0.16966864
0.5589565 0.026539741 -0.16668585
0.50114286 0.030408697 -0.17766072
0.51499999 0.0333336 -0.17904037
0.54896927 0.0380085 -0.17444991
0.56136811 0.036799297 -0.1678436
0.57218587 0.040839516 -0.16645879
0.53900003 0.051405963 -0.17934665
0.54675919 0.052032061 -0.17557096
0.56226259 0.052751582 -0.16941504
0.57151335 0.05339893 -0.16615188
0.54949611 0.066619344 -0.17716222
0.56192851 0.06823238 -0.17069077
0.57197541 0.063902408 -0.16662587
0.55197918 0.082007743 -0.17825831
0.56228042 0.082623176 -0.17172031
0.57031685 0.084505282 -0.16641463
0.55315381 0.093026586 -0.17921564
0.56118548 0.097458437 -0.17415577
0.5722636 0.098730937 -0.1674044
0.54884344 0.11325904 -0.17861575
0.56326967 0.11280309 -0.17334452
0.57288969 0.11191522 -0.16735931
0.54818219 0.12791607 -0.17737268
0.56302792 0.12707153 -0.17182252
0.57118011 0.12676378 -0.16655268
0.54959375 0.14183991 -0.17776194
0.56275272 0.1421656 -0.17263441
0.57153219 0.14437366 -0.16740844
0.54932791 0.15673231 -0.17793486
0.56139171 0.157741 -0.17531784
0.57511932 0.15752821 -0.17054263
0.55116057 0.17114283 -0.17899063
0.56239522 0.17265566 -0.17523755
0.57550865 0.17240237 -0.16873987
0.55162901 0.18917228 -0.17886612
0.56271511 0.18733528 -0.17420232
0.57336342 0.18735638 -0.16729635
0.55260509 0.19939592 -0.1788974
0.56195402 0.20301685 -0.17428903
0.57518667 0.20255481 -0.1681696
0.56412238 0.21716933 -0.17586251
0.57682145 0.21774897 -0.16824992
0.58499998 0.21013771 -0.16586524
0.56571358 0.23291108 -0.17654411
0.57747704 0.23266356 -0.17049436
0.58627278 0.23476513 -0.16616789
0.56620723 0.246814 -0.17747588
0.57649738 0.24820767 -0.17101143
0.5872885 0.24665779 -0.16587506
0.56637025 0.26019615 -0.17860082
0.57706493 0.26262185 -0.17140611
0.58499998 0.25884831 -0.16586524
0.56340909 0.27964881 -0.17789085
0.5771907 0.27736446 -0.1722203
0.58579999 0.2834022 -0.16571389
0.56420743 0.28778285 -0.17603095
0.57776922 0.2908932 -0.17011692
0.58700001 0.29378825 -0.16602544
0.58399999 0.30024791 -0.16699508
0.58785713 0.30155298 -0.16559021
0.55399996 -0.28598166 -0.1628857
0.56290007 -0.28821796 -0.15512523
0.55141991 -0.27919188 -0.16425878
0.55988526 -0.27735052 -0.15692092
0.5521481 -0.26072484 -0.16200708
0.56120586 -0.26328912 -0.15543287
0.57143903 -0.26294699 -0.15111221
0.55149633 -0.24779645 -0.1622185
0.56111908 -0.24719326 -0.15486166
0.5704 -0.24244149 -0.15068214
0.55067056 -0.23217873 -0.16350435
0.56071961 -0.23270378 -0.15616147
0.57230002 -0.23429176 -0.15062781
0.55150461 -0.21734363 -0.16310427
0.56102496 -0.21723652 -0.15549654
0.56999999 -0.21145919 -0.15057647
0.55022931 -0.2017675 -0.16233665
0.56153792 -0.20332068 -0.15603599
0.57066649 -0.20299836 -0.15138577
0.54845089 -0.18748859 -0.16121751
0.56099969 -0.18673579 -0.15373144
0.57099998 -0.18993896 -0.15037921
0.55137479 -0.17419189 -0.16306685
0.56185871 -0.17371979 -0.15713997
0.57286775 -0.17091343 -0.15287678
0.55347627 -0.15605898 -0.16326232
0.56131172 -0.15711939 -0.15780692
0.57276738 -0.15857685 -0.1520858
0.55085915 -0.14118321 -0.16175398
0.56036955 -0.1445321 -0.15601744
0.57199997 -0.14831458 -0.15070815
0.53576469 -0.12316442 -0.15487507
0.54395717 -0.12954095 -0.15959024
0.52229625 -0.10971804 -0.15145804
0.53090841 -0.11240185 -0.15858269
0.52120757 -0.097839534 -0.15201569
0.53073418 -0.097754523 -0.15994449
0.52246153 -0.08220984 -0.15163603
0.53263998 -0.083450571 -0.15866649
0.54255563 -0.078681171 -0.1635554
0.52399999 -0.073900491 -0.15026075
0.53326082 -0.069606908 -0.15360561
0.54684681 -0.065590486 -0.15850101
0.55635709 -0.060828984 -0.16120549
0.47180006 -0.045373607 -0.15714344
0.55183339 -0.058605041 -0.15134279
0.56198549 -0.055691324 -0.15986694
0.57087505 -0.050744966 -0.15374318
0.58599997 -0.046238173 -0.15007587
0.46344617 -0.031535052 -0.1555839
0.46896735 -0.039033089 -0.15814048
0.58759463 -0.037726376 -0.15120107
0.46126515 -0.021891652 -0.15766114
0.465 -0.029562265 -0.1641019
0.58688891 -0.025878752 -0.15087752
0.45957813 -0.0077989325 -0.15742628
0.46530774 -0.00064467266 -0.15237109
0.59850001 -0.013421087 -0.15038025
0.46356243 0.0016435714 -0.16216826
0.47123188 0.0074410043 -0.15721315
0.48011106 0.014111117 -0.15876293
0.59052163 0.013996177 -0.15354362
0.47890916 0.01599228 -0.1545383
0.48384908 0.018843563 -0.16011016
0.56605089 0.024515368 -0.16361435
0.5777154 0.023288524 -0.15855229
0.58890742 0.022247301 -0.15277672
0.56849992 0.031514969 -0.16416778
0.57849437 0.037467252 -0.15890667
0.58947641 0.037316632 -0.15146512
0.57737267 0.052299954 -0.15979503
0.58716494 0.052212629 -0.15248902
0.56900001 0.072630845 -0.16408287
0.57771486 0.06750609 -0.16006097
0.58857512 0.067907915 -0.15301555
0.57574141 0.082468063 -0.15867835
0.58935428 0.081850573 -0.15190142
0.57818139 0.096493386 -0.16031902
0.59115309 0.098425739 -0.1533474
0.57999253 0.11265139 -0.16212782
0.59206361 0.11253857 -0.15530346
0.59999996 0.11580034 -0.15075715
0.57761043 0.12756999 -0.16220063
0.59107262 0.1274097 -0.15579464
0.60094601 0.12945402 -0.15125555
0.57865334 0.14231388 -0.16251503
0.59215987 0.1426495 -0.15577139
0.60086375 0.14020704 -0.15048893
0.58140987 0.15772496 -0.16180497
0.59081089 0.15716179 -0.15440358
0.60099995 0.1572108 -0.15003875
0.58240384 0.17248452 -0.16223203
0.5902347 0.17270088 -0.15481226
0.60057139 0.17502901 -0.15034667
0.58133078 0.18790819 -0.16238837
0.59143364 0.1873558 -0.15478413
0.58191669 0.19962518 -0.16320752
0.59229356 0.20208064 -0.15820961
0.60221529 0.20567954 -0.15289314
0.5834375 0.21757674 -0.16448091
0.59137148 0.21746865 -0.15991493
0.60313886 0.21682459 -0.15303794
0.58399999 0.22627032 -0.16463949
0.59159344 0.23228355 -0.16096272
0.60595161 0.23327282 -0.1539481
0.59301829 0.24778831 -0.16251771
0.60596395 0.24764588 -0.15531036
0.58400011 0.26375172 -0.16463949
0.59208983 0.26286504 -0.16106577
0.60717809 0.26212695 -0.15482189
0.58375013 0.27515614 -0.16456901
0.59219408 0.27701768 -0.16021536
0.60709 0.27774346 -0.15338477
0.61506665 0.27751127 -0.15057339
0.59292531 0.29208636 -0.16111852
0.6075871 0.29275569 -0.15419154
0.61499989 0.29087919 -0.15055706
0.59392285 0.30306163 -0.16219354
0.60849148 0.30651 -0.15500325
0.61499995 0.31271231 -0.15055707
0.61299998 0.3151575 -0.15155101
0.61499995 0.31568953 -0.15055707
0.58199996 -0.30090517 -0.14106986
0.58902442 -0.30258834 -0.13777065
0.56864285 -0.28957492 -0.14841528
0.57601261 -0.29099903 -0.14321476
0.58731896 -0.29248342 -0.13756073
0.56780696 -0.27824667 -0.14867805
0.57744211 -0.27721736 -0.14471987
0.58890384 -0.27677983 -0.13815439
0.56899995 -0.26939291 -0.14939426
0.57799381 -0.26258299 -0.14648513
0.59088874 -0.2630432 -0.13919328
0.56863624 -0.24903391 -0.1492988
0.57739699 -0.24854754 -0.1476036
0.59116566 -0.24731697 -0.14149277
0.56899995 -0.22532006 -0.14939426
0.57864398 -0.23156011 -0.14745492
0.58988106 -0.2333018 -0.14021844
0.56869221 -0.21877415 -0.14931349
0.5770455 -0.21696062 -0.14474431
0.58828425 -0.2176348 -0.13743426
0.57831281 -0.20266724 -0.14546326
0.58832538 -0.202015 -0.13794091
0.56899995 -0.19180633 -0.14939426
0.57725191 -0.18753947 -0.14750613
0.58951139 -0.18725763 -0.1404274
0.58044839 -0.17355153 -0.14846468
0.59015954 -0.17235026 -0.1410498
0.57992011 -0.15624039 -0.14796032
0.59067291 -0.15893739 -0.14098445
0.54824996 -0.13571075 -0.14350335
0.56389648 -0.14184813 -0.14583035
0.57733905 -0.14767055 -0.14327708
0.5218333 -0.12253626 -0.13865681
0.53021139 -0.12617061 -0.14352906
0.542 -0.13328904 -0.14492869
0.5171845 -0.11196449 -0.1419082
0.52599996 -0.11747117 -0.14998561
0.50867313 -0.094423391 -0.13669634
0.51277703 -0.097858742 -0.14313914
0.50868905 -0.087117903 -0.13717113
0.51348311 -0.081355155 -0.14251512
0.51911438 -0.070655979 -0.14077558
0.5312947 -0.064202577 -0.14377159
0.54346669 -0.06138511 -0.14806952
0.53708696 -0.05912729 -0.13841571
0.54563999 -0.057068996 -0.14162347
0.56136137 -0.05369845 -0.14171126
0.57770932 -0.050855491 -0.1431305
0.59104455 -0.048161916 -0.14152285
0.60705256 -0.049336463 -0.13652034
0.46286893 -0.031880643 -0.14327909
0.46770671 -0.037949029 -0.14130878
0.59204656 -0.03765884 -0.14485008
0.60511005 -0.0388631 -0.13818452
0.61853844 -0.035323367 -0.13583817
0.45992181 -0.022320194 -0.14186694
0.59401643 -0.023698324 -0.14501232
0.60505205 -0.021877101 -0.13827571
0.61559999 -0.018077865 -0.13613597
0.46136123 -0.0083573526 -0.14262663
0.46557134 -0.0010798059 -0.14244381
0.59875 -0.013185447 -0.14754455
0.60725343 -0.0074714101 -0.14105427
0.61566663 -0.010988037 -0.13581927
0.47245854 0.0055204164 -0.14562844
0.59609008 0.0093193408 -0.14683589
0.60746831 0.007354877 -0.14073537
0.61593491 0.0086589111 -0.13633178
0.4787778 0.01617551 -0.14913777
0.59574062 0.022250813 -0.14695793
0.60608143 0.023141962 -0.13996248
0.61633343 0.01774421 -0.13634503
0.59674245 0.037351307 -0.14753166
0.60561836 0.037460692 -0.14009947
0.61628568 0.040806737 -0.13581471
0.59483844 0.052697536 -0.14740786
0.60652393 0.052085977 -0.14127795
0.61935073 0.054748304 -0.13683668
0.595222 0.066536814 -0.14759167
0.60688508 0.067740344 -0.14231795
0.61853522 0.067521706 -0.13720135
0.59684283 0.080782764 -0.14825299
0.60624427 0.0816871 -0.14337793
0.61994255 0.082954243 -0.13756871
0.59768754 0.097515583 -0.14921182
0.6077624 0.097580135 -0.14592303
0.61998636 0.097897798 -0.13842189
0.59899998 0.10835788 -0.14953947
0.60733706 0.11308847 -0.14527588
0.62057155 0.11218529 -0.13776852
0.60896868 0.1273734 -0.14443876
0.61710155 0.12772827 -0.13679115
0.60712689 0.14235376 -0.14576152
0.61912501 0.14268884 -0.13826455
0.60589391 0.15801226 -0.14602049
0.62012434 0.15748332 -0.13901493
0.60621095 0.17204285 -0.1457548
0.61905283 0.1731488 -0.13821083
0.59899998 0.19100174 -0.14905623
0.60762012 0.18754773 -0.14617294
0.61937821 0.18736687 -0.13905743
0.60757208 0.20201193 -0.14505877
0.62189293 0.20238174 -0.13835008
0.63100004 0.20680581 -0.13513072
0.61043215 0.21711498 -0.14646044
0.62171978 0.21772662 -0.13910963
0.63161111 0.2177089 -0.13543101
0.6120193 0.23177184 -0.14842033
0.6215834 0.2325594 -0.14219159
0.63187796 0.23398986 -0.13660908
0.61160731 0.24737547 -0.14750229
0.62110037 0.24701288 -0.14313929
0.63384449 0.24803886 -0.13805686
0.61276013 0.26073101 -0.14806956
0.6207341 0.26288256 -0.1426917
0.63256973 0.26183826 -0.13778882
0.6210919 0.27768025 -0.14386217
0.63314503 0.27775946 -0.13698763
0.62128294 0.29241821 -0.14419149
0.63177961 0.29218552 -0.1367467
0.62070274 0.30675945 -0.14586246
0.63377094 0.3085379 -0.13883634
0.62372333 0.31804886 -0.1460173
0.63401783 0.32032013 -0.13991462
0.61224997 -0.3160508 -0.12370549
0.61812496 -0.31595534 -0.12127213
0.59424514 -0.30415833 -0.13168317
0.60733902 -0.30782467 -0.12566812
0.61802113 -0.30779737 -0.12123236
0.59392262 -0.29251954 -0.13172175
0.60526568 -0.29285866 -0.12562406
0.61551273 -0.29139081 -0.12183143
0.59522653 -0.27799675 -0.13230999
0.60613579 -0.27732784 -0.12628944
0.61532247 -0.2793133 -0.12171704
0.59738088 -0.26273867 -0.13322237
0.60601401 -0.26291642 -0.12682176
0.61719996 -0.26097775 -0.12157378
0.59673631 -0.24748117 -0.13267654
0.60578376 -0.24704574 -0.12571856
0.61676192 -0.25153202 -0.1212284
0.59662372 -0.23253183 -0.13242382
0.60700446 -0.23246568 -0.12536295
0.61499995 -0.22666472 -0.12078946
0.59633338 -0.21743566 -0.13294597
0.60761482 -0.21761346 -0.12612222
0.61549991 -0.21791001 -0.12063879
0.59574628 -0.20269811 -0.13338189
0.60718369 -0.20290446 -0.12739676
0.61660713 -0.20095316 -0.12145804
0.59620452 -0.18823895 -0.13353498
0.60493857 -0.18753532 -0.12864661
0.62006205 -0.18702495 -0.12242565
0.59752524 -0.17397346 -0.13322052
0.60678136 -0.17205723 -0.12925173
0.62100011 -0.17220534 -0.12331566
0.59493095 -0.15485789 -0.13184433
0.60649639 -0.15896772 -0.12876645
0.61778575 -0.15863615 -0.12250042
0.55078948 -0.13718423 -0.12876488
0.56270576 -0.14159463 -0.12873496
0.57843995 -0.14673622 -0.12851694
0.58777267 -0.14713152 -0.12423223
0.60599995 -0.14902797 -0.12146614
0.616 -0.1494991 -0.12098587
0.52153575 -0.12330045 -0.13302445
0.53227282 -0.12840773 -0.12664044
0.5431 -0.13434881 -0.12646794
0.51389819 -0.11171523 -0.12773223
0.50836426 -0.096547045 -0.1288372
0.51045412 -0.097844586 -0.12433111
0.50854921 -0.087382086 -0.1308289
0.51388353 -0.081350029 -0.12638851
0.52047449 -0.069808267 -0.12876052
0.53104556 -0.063821509 -0.12633891
0.54054546 -0.061484132 -0.12257723
0.58899999 -0.060731765 -0.12138475
0.60899997 -0.060705453 -0.12255391
0.61872733 -0.061844826 -0.12088069
0.53899997 -0.059490249 -0.1280383
0.54474109 -0.058245033 -0.12788649
0.56024992 -0.05572867 -0.13353552
0.56999999 -0.054173686 -0.13494246
0.59166664 -0.057979722 -0.12512352
0.6094721 -0.055506699 -0.12966897
0.61920965 -0.05130589 -0.12647347
0.63219994 -0.046653893 -0.12130781
0.46399999 -0.030621812 -0.13455257
0.46796519 -0.03422923 -0.13048543
0.62279171 -0.038412858 -0.13097481
0.63296801 -0.036687739 -0.12394231
0.4624804 -0.022179564 -0.12921345
0.46560919 -0.020795116 -0.12379587
0.6228528 -0.022267951 -0.13078189
0.63401794 -0.022936674 -0.12320197
0.46272689 -0.010220064 -0.13147935
0.46567988 -0.011632893 -0.12647134
0.62245691 -0.007739576 -0.13114606
0.63559264 -0.0070676771 -0.12379026
0.62234503 0.007755321 -0.13013202
0.63592941 0.0073798196 -0.12282405
0.64499998 0.006872206 -0.1204377
0.62266499 0.022561811 -0.1299867
0.63459772 0.022340363 -0.12211443
0.62263703 0.037446596 -0.13097569
0.63640153 0.037469003 -0.12344635
0.64519995 0.042273987 -0.12047505
0.62511224 0.051265646 -0.13207078
0.63683087 0.053095113 -0.12631938
0.6470871 0.053133145 -0.1215282
0.62568861 0.067098878 -0.13267347
0.63646513 0.06782648 -0.12730475
0.6473971 0.067691445 -0.12188322
0.62708157 0.082123093 -0.1334431
0.63574839 0.082532577 -0.12737414
0.64752614 0.082589321 -0.12147526
0.62744004 0.095784843 -0.13376038
0.63602686 0.097843662 -0.12822409
0.6481052 0.097454756 -0.12158382
0.6273334 0.11431975 -0.1341995
0.63667148 0.11245565 -0.12845966
0.64667863 0.11187024 -0.1213817
0.62406403 0.12691616 -0.13404909
0.63567537 0.12751538 -0.12804884
0.64602047 0.1277037 -0.12147705
0.62514305 0.14428763 -0.13229953
0.63580036 0.14161226 -0.12688534
0.64682454 0.14270677 -0.12128755
0.62571859 0.1570791 -0.13205925
0.63659632 0.15756142 -0.12665255
0.64768159 0.15808554 -0.1221218
0.62597913 0.16993529 -0.13306299
0.63611752 0.17151482 -0.13011312
0.65073073 0.17284778 -0.12446544
0.65999997 0.17903432 -0.12164131
0.62651074 0.18906119 -0.13334975
0.63547689 0.1868576 -0.13138652
0.65089869 0.18580617 -0.12838407
0.66603732 0.18843085 -0.12381186
0.62837487 0.19694586 -0.13330053
0.63688385 0.20285103 -0.12991254
0.65186387 0.20352989 -0.12393753
0.66690469 0.19832483 -0.12304992
0.63865143 0.2170897 -0.13125663
0.64815533 0.21771653 -0.12374114
0.63986534 0.23259422 -0.13276203
0.64944565 0.23273495 -0.12546101
0.64082342 0.24821846 -0.1306182
0.64851218 0.24609046 -0.1233562
0.63852984 0.26223183 -0.12966482
0.6469394 0.26254049 -0.12207641
0.6399197 0.27623898 -0.13184771
0.65077585 0.27843013 -0.12495186
0.65999997 0.28340721 -0.12057646
0.63874036 0.29326746 -0.13291489
0.65257335 0.29257023 -0.12612052
0.65999991 0.28660232 -0.12057644
0.64022732 0.30767837 -0.1310254
0.65111548 0.30688652 -0.12405541
0.63936764 0.32161242 -0.12954013
0.65083659 0.32222128 -0.12239654
0.65999997 0.32334584 -0.12004402
0.64375001 0.33070698 -0.12513734
0.64852941 0.33213076 -0.12195376
0.64099997 -0.33106449 -0.1055567
0.62709689 -0.31994504 -0.1175499
0.63584769 -0.3215149 -0.11050724
0.64499998 -0.31661603 -0.10628477
0.62347239 -0.30699521 -0.11691891
0.63663304 -0.30809677 -0.11020976
0.64635158 -0.30877054 -0.10600463
0.62097871 -0.29249525 -0.11654866
0.63599968 -0.2928783 -0.10979366
0.64727497 -0.29266122 -0.10618794
0.62216038 -0.27739906 -0.11572547
0.6343376 -0.2761111 -0.10850534
0.64788884 -0.28292939 -0.10576204
0.62437934 -0.26368147 -0.11655905
0.636123 -0.26292878 -0.10919189
0.64664513 -0.26067668 -0.10600254
0.62282372 -0.24706352 -0.11652859
0.6363529 -0.24772061 -0.10993776
0.64749998 -0.25366145 -0.1058864
0.62194735 -0.23209268 -0.11589913
0.6326372 -0.23280609 -0.1082159
0.62301743 -0.21800706 -0.11586513
0.6349597 -0.21729177 -0.10828023
0.62299109 -0.20359839 -0.11727025
0.63674837 -0.20254818 -0.11083668
0.64666665 -0.20056118 -0.1059326
0.62689137 -0.18771997 -0.1190999
0.63905323 -0.18814196 -0.11314977
0.64802933 -0.18689951 -0.10699032
0.62653321 -0.17172197 -0.11825079
0.63793236 -0.17321302 -0.11267527
0.64811891 -0.17156415 -0.10743275
0.62449098 -0.1574941 -0.11717643
0.63569617 -0.15694159 -0.11313442
0.65165174 -0.15671241 -0.10863043
0.54999995 -0.13614392 -0.11733817
0.59499997 -0.14344242 -0.11590137
0.62257147 -0.14857545 -0.11796318
0.63799995 -0.14968267 -0.11448641
0.65391189 -0.14415842 -0.10874591
0.53398132 -0.12582453 -0.11261822
0.54326308 -0.13198683 -0.11256227
0.65438473 -0.12817635 -0.10690124
0.52052182 -0.11107838 -0.11674127
0.53059316 -0.11206962 -0.11033504
0.65247881 -0.1136842 -0.10715961
0.66149998 -0.10663261 -0.10697586
0.5166328 -0.096833609 -0.11789749
0.53366625 -0.098332837 -0.11146124
0.54025924 -0.092983484 -0.10656147
0.65828574 -0.091245614 -0.10911015
0.66382265 -0.099070594 -0.10828796
0.52014697 -0.08263316 -0.11634119
0.53226566 -0.082385324 -0.11015175
0.54193556 -0.082039528 -0.10612699
0.64299995 -0.075119272 -0.11228354
0.65336567 -0.081851743 -0.10944935
0.52344 -0.073246196 -0.11783821
0.53292179 -0.070490673 -0.11471359
0.54455197 -0.066667378 -0.11145552
0.55766666 -0.060650624 -0.11672473
0.62057149 -0.065567888 -0.1159322
0.63993186 -0.06615746 -0.11398096
0.65009981 -0.06741222 -0.1081997
0.65999997 -0.060064841 -0.10513601
0.54718184 -0.059263855 -0.11869884
0.55766666 -0.059750728 -0.11672473
0.62354541 -0.056931317 -0.11908247
0.63940579 -0.054108944 -0.11721538
0.6505248 -0.052460801 -0.11156441
0.66441667 -0.053891577 -0.10583171
0.63986081 -0.036837347 -0.11798275
0.65129966 -0.037972171 -0.11241965
0.66433847 -0.036228739 -0.10717396
0.64095151 -0.023395589 -0.117993
0.6515215 -0.022394612 -0.11346024
0.66391104 -0.021795336 -0.10768102
0.64229167 -0.0088269757 -0.11928353
0.65229464 -0.0070389919 -0.11570001
0.66450882 -0.0077578202 -0.10880528
0.64385718 0.0078976266 -0.11918549
0.65296292 0.0070824479 -0.11573213
0.66330945 0.0080660181 -0.10832015
0.64135897 0.023496864 -0.11874726
0.65335971 0.022382973 -0.11591659
0.6637817 0.022533622 -0.10903465
0.64235717 0.034092788 -0.11927778
0.65217507 0.037743043 -0.11615866
0.66701782 0.03704755 -0.10975167
0.676 0.042050485 -0.10671394
0.65347511 0.052109256 -0.1170105
0.6666863 0.053699508 -0.11084975
0.67799991 0.050082263 -0.10685728
0.65468442 0.068140544 -0.11701253
0.66621321 0.06711743 -0.11000541
0.65523702 0.082139552 -0.11708783
0.66699964 0.082831077 -0.10989477
0.67499995 0.087250605 -0.10534738
0.65564317 0.097622104 -0.11765916
0.66601199 0.097530559 -0.11004853
0.67499995 0.093241394 -0.10534737
0.65427279 0.11324602 -0.11697619
0.66458076 0.1120984 -0.10963338
0.65314484 0.12659751 -0.11557592
0.66539061 0.12846079 -0.10869461
0.67499995 0.13408771 -0.10534737
0.6540333 0.14218563 -0.11711048
0.66661286 0.1425166 -0.11013415
0.67563641 0.14130406 -0.10544669
0.65474361 0.15771298 -0.11755018
0.66738462 0.15717739 -0.11148845
0.67643243 0.1588769 -0.10636559
0.65633351 0.16926321 -0.11869964
0.66730398 0.17268007 -0.11292412
0.67681813 0.17212009 -0.10637299
0.6717357 0.18481962 -0.11431249
0.67499959 0.1900944 -0.11024813
0.65605885 0.20701042 -0.11826522
0.66757131 0.2032979 -0.11346005
0.67499959 0.1997181 -0.10918271
0.65472728 0.21839122 -0.11697597
0.66634303 0.21709195 -0.11084635
0.67614806 0.2179908 -0.10601106
0.65443009 0.23197624 -0.11631021
0.66664237 0.23250283 -0.11022554
0.67777771 0.23286229 -0.10614319
0.65522462 0.24860793 -0.11746828
0.66597646 0.24726841 -0.11093814
0.67879462 0.24793106 -0.10610616
0.6544683 0.26098579 -0.11733083
0.66692138 0.26240575 -0.11230437
0.68203932 0.26409706 -0.10737256
0.65816665 0.27571881 -0.11944504
0.66665715 0.27825418 -0.11574233
0.67883915 0.27719864 -0.10856673
0.65863633 0.2939817 -0.11979603
0.6661213 0.29255068 -0.11493599
0.68056691 0.29235649 -0.10802817
0.65806675 0.30753118 -0.11969241
0.66631192 0.3073943 -0.1145528
0.68146348 0.30692229 -0.10737555
0.6570608 0.32572278 -0.11870458
0.66704357 0.32204178 -0.11493544
0.68133307 0.32253322 -0.1082569
0.6901111 0.32473511 -0.10547888
0.65566671 0.33394638 -0.11781452
0.66757131 0.33665371 -0.11296679
0.68081146 0.33717221 -0.10911057
0.69271803 0.33917519 -0.10670538
0.67349994 0.34571815 -0.10945981
0.68273526 0.34811851 -0.10687017
0.69505548 0.34836257 -0.10591937
0.64281821 -0.33131146 -0.10239679
0.65104425 -0.33433613 -0.096784167
0.66662312 -0.33712512 -0.091829151
0.64293605 -0.32496771 -0.1028804
0.65013665 -0.32168356 -0.099643394
0.66576266 -0.32273009 -0.093585797
0.65374416 -0.30765375 -0.10101698
0.66304439 -0.30776256 -0.093846768
0.65504795 -0.29314575 -0.10152267
0.6633172 -0.29176855 -0.093892775
0.64142859 -0.27292931 -0.10468926
0.65380991 -0.27799782 -0.10242927
0.6646542 -0.27768338 -0.095283993
0.65417248 -0.26257899 -0.10180599
0.66360033 -0.26291153 -0.094009437
0.64173335 -0.24210902 -0.10367289
0.65215981 -0.24777313 -0.099898078
0.66362119 -0.24735323 -0.092908144
0.63980281 -0.23256584 -0.10307073
0.65137225 -0.23215413 -0.099793032
0.66670245 -0.23276544 -0.094241843
0.64133328 -0.21980254 -0.10457537
0.65202224 -0.21701412 -0.10062554
0.66588354 -0.21768175 -0.093628004
0.65307546 -0.20353626 -0.10162764
0.66630751 -0.20216544 -0.095089398
0.67577779 -0.19708331 -0.091475539
0.65510935 -0.1873318 -0.10276704
0.66663247 -0.18737549 -0.09658663
0.67580634 -0.18899177 -0.091262639
0.65519255 -0.17233223 -0.10194337
0.66576153 -0.17230608 -0.094665587
0.67500001 -0.17471035 -0.090100534
0.65823102 -0.15807131 -0.1034239
0.6651929 -0.15724345 -0.095789172
0.67499995 -0.15129182 -0.090100534
0.65850013 -0.14148393 -0.10425191
0.66672748 -0.14279294 -0.097241968
0.67617399 -0.14218323 -0.090683386
0.5366922 -0.12372755 -0.10294434
0.54233336 -0.12899579 -0.10418431
0.65706468 -0.12567805 -0.10244338
0.6659528 -0.12828505 -0.095840462
0.67514288 -0.13116942 -0.090119608
0.53508133 -0.11307381 -0.10151903
0.54099995 -0.10554358 -0.098399706
0.65588647 -0.11451694 -0.10138395
0.66461873 -0.11131909 -0.095322661
0.53799993 -0.10110351 -0.1027173
0.54066294 -0.094985388 -0.10128206
0.66724759 -0.097643033 -0.09755519
0.67499995 -0.094107002 -0.090100534
0.54596651 -0.081837006 -0.10188218
0.55599993 -0.075946584 -0.099108383
0.65836132 -0.08204703 -0.1039893
0.66620553 -0.082566604 -0.09672422
0.67571431 -0.082756951 -0.090195879
0.55142224 -0.071811415 -0.10327736
0.55783868 -0.070624962 -0.10154688
0.65827286 -0.069226004 -0.1042809
0.66712934 -0.068177447 -0.098610096
0.67790735 -0.064942166 -0.092550039
0.67018759 -0.056115888 -0.10324064
0.67846346 -0.052167296 -0.096281983
0.67147893 -0.036661521 -0.10233637
0.68129539 -0.038002633 -0.095062137
0.67036808 -0.022152048 -0.10068953
0.68074048 -0.023051599 -0.093650244
0.67125374 -0.0078378357 -0.1006804
0.67899048 -0.0071811522 -0.093257181
0.6703161 0.0076805311 -0.10136449
0.68077552 0.0075304797 -0.094284467
0.69 0.012362144 -0.090989508
0.67022818 0.022159092 -0.10096884
0.68175703 0.022918537 -0.093900964
0.67177272 0.033028439 -0.10272381
0.68313956 0.037630793 -0.098011985
0.69118917 0.03992315 -0.091747627
0.67349994 0.05879914 -0.10402662
0.68380827 0.052792836 -0.099648044
0.69243926 0.052139413 -0.092440963
0.67229033 0.067213312 -0.10401417
0.68122333 0.066824235 -0.099059835
0.69363892 0.068536624 -0.09290842
0.67233324 0.078410141 -0.10391762
0.6817416 0.083037972 -0.10017613
0.69474739 0.08203508 -0.093471222
0.67311102 0.10058306 -0.10396654
0.68155485 0.096905559 -0.099309437
0.69434851 0.098413438 -0.092455052
0.67142862 0.11441214 -0.10378297
0.68190873 0.11267024 -0.099304222
0.69610012 0.11217066 -0.093056515
0.67207694 0.12453962 -0.10296932
0.68250871 0.12758718 -0.098346502
0.69519675 0.12801723 -0.092236742
0.70499998 0.13492775 -0.090692632
0.68290347 0.14210606 -0.10222967
0.69713295 0.14321841 -0.095390446
0.70499998 0.14072976 -0.09080638
0.68409032 0.15802953 -0.099888697
0.69324118 0.15538329 -0.093094252
0.68384969 0.17226316 -0.10010214
0.6921078 0.17291138 -0.092638485
0.68160957 0.18760593 -0.10049627
0.69447148 0.18750387 -0.09314239
0.68209594 0.20208469 -0.10039745
0.69653845 0.20295408 -0.09307462
0.68295163 0.21704035 -0.10164387
0.69669908 0.21793623 -0.094481982
0.70500004 0.21911353 -0.090692632
0.68428987 0.23299804 -0.10253475
0.6957019 0.23232436 -0.095049538
0.68521047 0.24662237 -0.10272824
0.69624108 0.24772681 -0.095706582
0.70599997 0.24747433 -0.09067829
0.68809998 0.26155278 -0.10367199
0.69556397 0.26263157 -0.096745394
0.68618393 0.27730885 -0.10216358
0.69377714 0.27670622 -0.095300741
0.68692857 0.29061633 -0.10360549
0.6965031 0.29249349 -0.096681252
0.70499998 0.29931748 -0.091261372
0.68807691 0.30712661 -0.10405781
0.69911093 0.30782419 -0.098260678
0.70507693 0.30683309 -0.091533795
0.68899995 0.31698468 -0.10419741
0.69955444 0.32199374 -0.098114908
0.70499998 0.32832745 -0.091830105
0.70011663 0.33582416 -0.10225442
0.70725536 0.33839542 -0.095065817
0.69900954 0.35472697 -0.099789813
0.70778346 0.35064769 -0.096068949
0.70133328 0.36057171 -0.093615048
0.70500004 0.36131918 -0.091261372
0.70066667 -0.36112425 -0.076002151
0.67199993 -0.34662303 -0.087257624
0.68252397 -0.34946424 -0.082679331
0.6966666 -0.35259512 -0.079121292
0.70757133 -0.3509776 -0.076531932
0.67266685 -0.33907503 -0.088055328
0.68088847 -0.3367452 -0.084757358
0.6979115 -0.3369709 -0.079963095
0.7082333 -0.3393071 -0.076326177
0.67172009 -0.32184681 -0.087818794
0.68121052 -0.32313046 -0.083914936
0.69561052 -0.32335153 -0.079167694
0.66846973 -0.30722031 -0.087116219
0.68371803 -0.30693346 -0.080175154
0.69292313 -0.31073594 -0.076838672
0.66994053 -0.29279616 -0.087074384
0.68135732 -0.29252595 -0.079598911
0.69 -0.28659654 -0.075960487
0.67177588 -0.27787113 -0.087930314
0.6807707 -0.27768505 -0.081831276
0.69466102 -0.27574354 -0.076706007
0.67110282 -0.26181677 -0.087187342
0.68094456 -0.26350343 -0.082550988
0.69674647 -0.26285157 -0.07768365
0.67099971 -0.24822484 -0.087198175
0.68054235 -0.24664254 -0.082885697
0.69744176 -0.24738383 -0.078051433
0.67299992 -0.2338618 -0.089604802
0.68162811 -0.23251322 -0.085636452
0.69536996 -0.23235829 -0.078551009
0.67161542 -0.21718766 -0.089105897
0.68086612 -0.21760876 -0.085184172
0.69605911 -0.21763465 -0.07885652
0.67212504 -0.20568721 -0.089309484
0.68297487 -0.20239908 -0.085875019
0.69372511 -0.2030455 -0.078681834
0.6839475 -0.18769783 -0.085051492
0.69360256 -0.18634005 -0.07783097
0.67349988 -0.16725865 -0.089356989
0.68110949 -0.17267247 -0.08637505
0.69589633 -0.17277868 -0.079490602
0.67316669 -0.15848351 -0.089312762
0.68165809 -0.15697929 -0.086091243
0.69589067 -0.15752558 -0.079373315
0.68201011 -0.14257357 -0.086590461
0.69511235 -0.14266399 -0.079205602
0.67283332 -0.1236634 -0.08926855
0.6820091 -0.12744337 -0.085158207
0.69635111 -0.12750143 -0.078346446
0.6725716 -0.11276042 -0.089233801
0.68188363 -0.11233559 -0.085042998
0.69535089 -0.11283669 -0.078495152
0.67379993 -0.099265985 -0.08939679
0.68220037 -0.097561792 -0.084836766
0.69393033 -0.096618056 -0.078027382
0.68279719 -0.083023965 -0.087679222
0.69774789 -0.08297947 -0.082058862
0.70572096 -0.08053948 -0.077199489
0.68543756 -0.067582488 -0.088195786
0.69795018 -0.067072071 -0.082406141
0.70552939 -0.069868103 -0.076831885
0.68542844 -0.053073883 -0.087743767
0.69652176 -0.052304089 -0.081310801
0.70676464 -0.050424978 -0.075691812
0.68818742 -0.038471583 -0.089501321
0.69700795 -0.038136616 -0.084679522
0.7100535 -0.036394279 -0.078014389
0.68786675 -0.021831257 -0.089450166
0.69817495 -0.021820582 -0.084189117
0.70849127 -0.024350794 -0.077840805
0.68601835 -0.007060321 -0.087877952
0.69674677 -0.0076909885 -0.081076413
0.70633328 -0.0015921479 -0.076047577
0.68691659 0.0042744679 -0.089197263
0.69685024 0.007975651 -0.083012216
0.70690906 0.0039006737 -0.076368369
0.68900001 0.01623562 -0.089745998
0.69560975 0.022208326 -0.083071701
0.70645452 0.027633451 -0.076164186
0.69754797 0.036978804 -0.084187232
0.70883334 0.0385019 -0.077202603
0.69944578 0.052332785 -0.086911932
0.7102809 0.052650645 -0.079446234
0.70114905 0.066662252 -0.087659165
0.70963562 0.067789637 -0.080357835
0.70134604 0.083598174 -0.087083727
0.71068347 0.082173906 -0.079854473
0.70052165 0.095074169 -0.087801799
0.71178699 0.097973265 -0.081040241
0.69972724 0.11646388 -0.089294612
0.71253514 0.11238897 -0.082360752
0.71999997 0.11456156 -0.075197332
0.70102859 0.12538312 -0.088337652
0.71116716 0.12760393 -0.081388444
0.704 0.14780074 -0.089428142
0.71164262 0.14231864 -0.082746431
0.72066659 0.14490317 -0.075266957
0.69866651 0.15928966 -0.086614288
0.71148896 0.15655246 -0.08036489
0.72033334 0.15181047 -0.075232148
0.69927967 0.17263323 -0.086021662
0.70958447 0.17255917 -0.078678846
0.70120335 0.18631068 -0.087477602
0.71224481 0.18786514 -0.080302127
0.72088885 0.19238526 -0.076065332
0.70250005 0.20153922 -0.088772997
0.7117725 0.20212424 -0.083290659
0.72265792 0.20342688 -0.077159651
0.70324993 0.21232872 -0.089332864
0.7122888 0.21763283 -0.085094795
0.72365069 0.21764083 -0.077853985
0.71185923 0.2322655 -0.084643073
0.72256851 0.23150076 -0.077314243
0.71277583 0.2479091 -0.085215539
0.72252357 0.24717683 -0.077770829
0.70139134 0.26380023 -0.088527992
0.71216494 0.26202235 -0.084068023
0.72392166 0.26216111 -0.078086287
0.70039988 0.27719957 -0.088936888
0.71163464 0.27602148 -0.085085005
0.72663641 0.27825308 -0.079247452
0.70383334 0.28860101 -0.088839188
0.7125203 0.29343835 -0.085343577
0.72696203 0.29227215 -0.080012627
0.73552173 0.29181615 -0.076199234
0.71276069 0.3080416 -0.085030623
0.72435933 0.30743504 -0.077582493
0.73539996 0.30213633 -0.075619213
0.704 0.31934154 -0.088860229
0.71184391 0.32243177 -0.083084434
0.7243703 0.32210913 -0.076430619
0.71341044 0.33718857 -0.083207421
0.72366667 0.337275 -0.076140858
0.7148878 0.35259417 -0.085798271
0.72255552 0.35290217 -0.078420773
0.71435857 0.36376098 -0.086033225
0.72586894 0.36712301 -0.078909829
0.72999996 0.37530988 -0.075652838
0.70199996 -0.36158681 -0.074223481
0.71226102 -0.36427122 -0.067600347
0.72447836 -0.36431673 -0.062346704
0.71426225 -0.35397995 -0.071487695
0.72508222 -0.3524549 -0.064527504
0.71563005 -0.33653161 -0.071025409
0.72343075 -0.33876422 -0.063958757
0.70342857 -0.31682295 -0.073790647
0.71230942 -0.32243928 -0.067425609
0.72066665 -0.32898876 -0.061313547
0.70019686 -0.30612382 -0.071100421
0.71177566 -0.30793607 -0.064277574
0.72049993 -0.30217075 -0.060718667
0.69806057 -0.29292533 -0.071847595
0.71248376 -0.29262763 -0.066327609
0.72283995 -0.29164824 -0.062080115
0.69945943 -0.27998787 -0.073658556
0.71204627 -0.27692455 -0.068816423
0.72221035 -0.27875498 -0.061720103
0.704 -0.26230666 -0.074094184
0.71251649 -0.26222888 -0.067541383
0.72066665 -0.26793569 -0.06015135
0.70299995 -0.24208258 -0.073988944
0.71135521 -0.24793461 -0.067355096
0.72039992 -0.24516538 -0.060129087
0.7014696 -0.23193184 -0.07202448
0.7111333 -0.23228979 -0.064816289
0.71999997 -0.23631732 -0.060095705
0.70181149 -0.21716848 -0.071933202
0.70974559 -0.21793689 -0.064523675
0.71999997 -0.22411788 -0.060095701
0.70022619 -0.20211449 -0.070724256
0.71019596 -0.20210463 -0.063338391
0.72099996 -0.19708776 -0.060179174
0.69882733 -0.18781774 -0.071980476
0.71193272 -0.18702973 -0.065089084
0.72115374 -0.18781948 -0.060192019
0.70302337 -0.17280532 -0.073291376
0.71184772 -0.17276324 -0.06729272
0.72113508 -0.17230903 -0.061321247
0.70281255 -0.15706626 -0.073542796
0.71111363 -0.15772122 -0.06734702
0.72141171 -0.15676017 -0.061239403
0.70238459 -0.14269425 -0.073966995
0.71005321 -0.14248602 -0.068937063
0.72552305 -0.14258471 -0.062820911
0.70246154 -0.12740529 -0.074498959
0.71132106 -0.12768345 -0.070194297
0.72878301 -0.12765159 -0.063596375
0.73560005 -0.12570074 -0.060210951
0.70154166 -0.11050283 -0.073598869
0.71171635 -0.11303256 -0.069881454
0.72734606 -0.11292087 -0.063586704
0.73499995 -0.11907685 -0.060161844
0.69967985 -0.098536476 -0.072868168
0.71201134 -0.096887611 -0.068540715
0.72471422 -0.097308427 -0.062878124
0.70199996 -0.089375243 -0.074450001
0.71211296 -0.082622938 -0.070084721
0.72419411 -0.082031883 -0.062670633
0.71147573 -0.067681 -0.071150921
0.72635096 -0.067172758 -0.063815191
0.73542863 -0.070490323 -0.060196921
0.71203214 -0.053239755 -0.071591742
0.72772902 -0.051936127 -0.064458668
0.73518181 -0.051483374 -0.060176723
0.71662968 -0.039301038 -0.07381548
0.72763246 -0.03773075 -0.067170694
0.73538458 -0.033241909 -0.061105534
0.71501172 -0.020798057 -0.070859708
0.72493893 -0.023314936 -0.065100431
0.73499995 -0.028936608 -0.06075478
0.71055716 -0.0079025058 -0.072365314
0.72706813 -0.0074368846 -0.06503246
0.73589987 -0.0050417106 -0.06100706
0.71241117 0.0083101466 -0.071557187
0.72648829 0.007338434 -0.06524346
0.73638469 0.0069805686 -0.061006252
0.704 0.018861145 -0.074662119
0.71217495 0.022378346 -0.071009398
0.7259019 0.02319208 -0.065312214
0.73859471 0.022527358 -0.061582226
0.71678352 0.036481693 -0.072507009
0.72669238 0.037915953 -0.066797331
0.73866671 0.039038733 -0.061615195
0.71800011 0.053462472 -0.07416755
0.72636545 0.052679338 -0.068476632
0.73668188 0.051912077 -0.062053412
0.71797287 0.068054311 -0.073889099
0.72658539 0.067695886 -0.068064474
0.73613054 0.066463925 -0.061879277
0.71807152 0.081106842 -0.07391946
0.72659373 0.082231775 -0.067737311
0.73745722 0.083846346 -0.061651409
0.71851367 0.099001296 -0.073412165
0.72505224 0.096566312 -0.068411216
0.73872107 0.097195238 -0.061959174
0.71899998 0.10715096 -0.073062807
0.72591001 0.11262855 -0.067998387
0.73696536 0.1127029 -0.061100338
0.71842104 0.12797768 -0.07429976
0.72629869 0.12731561 -0.068355344
0.73637509 0.12812251 -0.061423805
0.71799999 0.13509855 -0.074988447
0.72794807 0.1426329 -0.070213772
0.73831356 0.14324354 -0.063165732
0.71800005 0.16116756 -0.074988455
0.72632575 0.15750195 -0.069737434
0.73892844 0.15694459 -0.062649176
0.71794099 0.17314762 -0.07395871
0.72736925 0.17184526 -0.068544365
0.73907995 0.17245789 -0.062280793
0.71633333 0.18217878 -0.074814379
0.72706854 0.18760026 -0.071148738
0.73963559 0.18797436 -0.064249486
0.75199997 0.19428271 -0.060340062
0.7295078 0.20261185 -0.071719803
0.74083692 0.20204484 -0.065066382
0.75253338 0.20401515 -0.060625505
0.73009568 0.21750103 -0.072261386
0.74134427 0.21756838 -0.065400511
0.75170004 0.21749322 -0.060800653
0.72891659 0.23272219 -0.072694048
0.74221128 0.23278698 -0.066523641
0.75259376 0.23276682 -0.061599217
0.72901154 0.24832515 -0.071724102
0.74156827 0.24729244 -0.065620184
0.75117248 0.24646191 -0.061275247
0.72919148 0.26211083 -0.070361115
0.74177897 0.26217094 -0.062882237
0.75049996 0.25848398 -0.060219705
0.73214698 0.27345479 -0.072015315
0.74184275 0.27820918 -0.066564932
0.75199997 0.27993691 -0.060945503
0.74258929 0.29254434 -0.070780791
0.75390333 0.29276854 -0.063371167
0.73026925 0.30940127 -0.074001692
0.74174231 0.30666342 -0.070287138
0.75504214 0.30689201 -0.063681401
0.72891998 0.32266909 -0.074339472
0.74011123 0.32222047 -0.071164608
0.75773686 0.32283711 -0.064998314
0.76569229 0.3254188 -0.060583118
0.72905397 0.33879673 -0.073753931
0.74082524 0.33805653 -0.070054285
0.75764549 0.33789891 -0.065547876
0.76586092 0.33706817 -0.061691131
0.72913557 0.3522087 -0.072696976
0.74100828 0.35243815 -0.066038072
0.75437504 0.34850478 -0.061956782
0.73129016 0.36497417 -0.073367
0.74062455 0.36770922 -0.066520646
0.73299998 0.37626088 -0.07418979
0.74433333 0.37901926 -0.066092357
0.75 0.38377699 -0.060784623
0.71819991 -0.37022939 -0.053057406
0.72719419 -0.36599082 -0.052360289
0.736 -0.36092958 -0.046587702
0.73032022 -0.35261688 -0.054580394
0.73801726 -0.35287982 -0.047265302
0.72890538 -0.33732396 -0.054128498
0.73807496 -0.33824286 -0.046388522
0.71786201 -0.31950051 -0.058157794
0.72582 -0.32298133 -0.052895665
0.73767322 -0.32200891 -0.046918079
0.7175715 -0.31210762 -0.059147485
0.727081 -0.30752394 -0.053900793
0.73662513 -0.30878428 -0.046736829
0.72788596 -0.29292244 -0.05402026
0.7418136 -0.29133958 -0.047021553
0.72721148 -0.27757701 -0.054864075
0.74259996 -0.27726054 -0.047325261
0.71899992 -0.26035404 -0.058852188
0.72619528 -0.26251405 -0.053286128
0.73779309 -0.26379794 -0.046636954
0.71899998 -0.25281253 -0.058852188
0.72660285 -0.24734916 -0.053087577
0.73593742 -0.24860018 -0.046212416
0.71899998 -0.22902767 -0.058852196
0.72705871 -0.2327857 -0.053449191
0.73811913 -0.22997239 -0.047201511
0.71763146 -0.21488082 -0.058922246
0.72716033 -0.21753822 -0.054814938
0.74069732 -0.21816467 -0.048196249
0.71715987 -0.20501606 -0.058885705
0.72768879 -0.20211272 -0.054078944
0.73805767 -0.20275982 -0.047079418
0.72815204 -0.1880192 -0.054511745
0.73887891 -0.18660857 -0.047323804
0.72755021 -0.17197457 -0.056197882
0.740583 -0.17288743 -0.048943602
0.75033331 -0.16817567 -0.045679085
0.72745818 -0.1569193 -0.055608705
0.74009591 -0.15736489 -0.048563756
0.75099999 -0.1640846 -0.045719668
0.7310887 -0.14407626 -0.056597814
0.73918664 -0.14126745 -0.04979232
0.73349994 -0.13333274 -0.059151277
0.74040836 -0.12755536 -0.052136175
0.73254555 -0.11008517 -0.058939345
0.74036658 -0.1126187 -0.051423557
0.73085701 -0.097955354 -0.058675691
0.74125731 -0.097567573 -0.051684026
0.75099999 -0.095613681 -0.045719679
0.73142862 -0.083488584 -0.05872168
0.74137628 -0.082337022 -0.051766936
0.7507 -0.079945616 -0.046064433
0.74121869 -0.068138354 -0.05495036
0.75453502 -0.066261031 -0.047950316
0.74175543 -0.052403305 -0.055571411
0.75463146 -0.052687615 -0.048078712
0.74179095 -0.037687186 -0.054958548
0.75293881 -0.036562085 -0.04808902
0.73099995 -0.021113981 -0.059834432
0.74160004 -0.023406604 -0.056416467
0.75566268 -0.021767259 -0.049253669
0.73233336 -0.013467763 -0.059943572
0.74225026 -0.0071083275 -0.056703523
0.75542134 -0.0073943315 -0.049172796
0.74371779 0.00718997 -0.056297798
0.75521088 0.0075642592 -0.048766758
0.74652392 0.022334494 -0.057544783
0.75695479 0.022283126 -0.049937841
0.74587476 0.037092984 -0.057609357
0.75737953 0.03765193 -0.04994661
0.74453664 0.053586863 -0.056202114
0.75561947 0.05122631 -0.049325954
0.74427283 0.066668704 -0.05637328
0.75483704 0.068297416 -0.049141727
0.74424124 0.081975065 -0.057413295
0.75716996 0.082468033 -0.050006036
0.74530011 0.09785293 -0.057922725
0.75595284 0.09720245 -0.050434176
0.74406898 0.11280905 -0.056259587
0.75302458 0.11222334 -0.04912217
0.74296463 0.12746809 -0.056038082
0.75374347 0.12777252 -0.048770566
0.74506778 0.14198829 -0.057354555
0.75628561 0.14223079 -0.05045934
0.76700008 0.14535396 -0.045971468
0.74454999 0.15835775 -0.0593202
0.75845909 0.15741587 -0.055251442
0.77106434 0.158388 -0.049380098
0.78120005 0.16073136 -0.045793455
0.74500012 0.17232803 -0.059150692
0.75578094 0.17250396 -0.055204004
0.7692275 0.17197061 -0.048925348
0.74699998 0.18274756 -0.059135027
0.75853747 0.18780434 -0.054150533
0.76808596 0.18679042 -0.047929592
0.75934678 0.20224707 -0.056279369
0.76933318 0.20374343 -0.04976711
0.75824976 0.21785304 -0.056388762
0.77161604 0.21716696 -0.04958088
0.75970966 0.23269469 -0.056032103
0.77058679 0.23251018 -0.048692558
0.75723994 0.2469545 -0.056514315
0.76982713 0.24801473 -0.04952253
0.78099996 0.25344667 -0.045025878
0.74833333 0.26417822 -0.058838479
0.75641435 0.26272887 -0.055941392
0.77098793 0.26189268 -0.049439691
0.78100008 0.26226872 -0.045025881
0.75773174 0.27498004 -0.056584653
0.77114779 0.2776919 -0.0498068
0.78099996 0.27046052 -0.045025878
0.76099992 0.2948547 -0.058166005
0.77277946 0.29281592 -0.051019993
0.78091669 0.29500523 -0.045440566
0.76222563 0.30609787 -0.058700066
0.77005935 0.30732572 -0.051154383
0.78099996 0.30070737 -0.045025881
0.76400006 0.31635326 -0.058837637
0.77246624 0.32238933 -0.052890807
0.78109092 0.3273263 -0.046061657
0.764 0.34470886 -0.058837637
0.77239227 0.33798325 -0.054298177
0.78178281 0.33761907 -0.046878628
0.74624997 0.35777324 -0.059878692
0.75856137 0.35394058 -0.057854872
0.77104783 0.35158166 -0.051256564
0.78116667 0.34657106 -0.045664728
0.74724984 0.36729822 -0.059415128
0.75627923 0.36747128 -0.056081284
0.77135092 0.36730549 -0.049776204
0.78120005 0.36822817 -0.045037415
0.75809389 0.38244742 -0.055000383
0.77318466 0.38268623 -0.048423946
0.78200001 0.38248464 -0.045083534
0.76100004 0.39083788 -0.052670024
0.77132165 0.39330456 -0.048061628
0.78099996 0.39396846 -0.045025885
0.72799999 -0.37594903 -0.033009388
0.76099998 -0.37687343 -0.030366885
0.76633328 -0.37642211 -0.030579705
0.71855545 -0.37034678 -0.043744314
0.72780818 -0.36907658 -0.038252153
0.74219549 -0.3657397 -0.038902786
0.75597 -0.3658196 -0.03479993
0.7667222 -0.36520368 -0.031624317
0.74526924 -0.35286513 -0.042430572
0.75691479 -0.35199672 -0.035513934
0.76571429 -0.35511473 -0.030555004
0.74499983 -0.33806762 -0.042696305
0.75672603 -0.33763126 -0.03561122
0.76499999 -0.33441362 -0.031143636
0.74463868 -0.32271037 -0.042927999
0.75642633 -0.32264104 -0.035734527
0.74300009 -0.30689377 -0.043246452
0.75642449 -0.30760452 -0.036065843
0.76524997 -0.30349848 -0.030999329
0.74563152 -0.29658589 -0.043681175
0.75835705 -0.29257086 -0.038659595
0.76659995 -0.29211196 -0.031685125
0.74700004 -0.27411315 -0.044270925
0.75826389 -0.27831572 -0.039276142
0.76734078 -0.27805483 -0.032390174
0.74351841 -0.2611658 -0.04230205
0.75790542 -0.26289803 -0.035566691
0.76583332 -0.26557475 -0.031177569
0.74235451 -0.24697085 -0.041122504
0.75550699 -0.24832463 -0.033371478
0.74361283 -0.23386183 -0.041246444
0.755804 -0.2317653 -0.035027206
0.76710522 -0.22727633 -0.031911101
0.74729997 -0.21573341 -0.043564118
0.75645351 -0.21819574 -0.039097618
0.76877552 -0.21799527 -0.032772992
0.74502331 -0.20189548 -0.042556945
0.7575832 -0.2021458 -0.037056398
0.76766652 -0.20189011 -0.031937636
0.74575001 -0.18861653 -0.043179788
0.75654083 -0.18686286 -0.040106598
0.77101183 -0.18719552 -0.034166005
0.74800003 -0.17549673 -0.044330195
0.75871623 -0.17188519 -0.041721463
0.77173799 -0.17239511 -0.034696124
0.74662501 -0.15349142 -0.043946594
0.75746036 -0.1574825 -0.040924855
0.77016413 -0.15788427 -0.034091987
0.74561542 -0.14244828 -0.043586012
0.75598294 -0.1420293 -0.040105838
0.76867539 -0.14290169 -0.033865534
0.74758333 -0.12775151 -0.043701686
0.75643355 -0.12655868 -0.03865625
0.76859987 -0.12818488 -0.032540295
0.74857152 -0.116097 -0.043760184
0.75576741 -0.11242664 -0.039898906
0.76850796 -0.11216193 -0.033161405
0.75678343 -0.097420275 -0.040834803
0.76807827 -0.098021269 -0.033452109
0.75747931 -0.082488351 -0.040755507
0.76795453 -0.082278088 -0.033230405
0.76061267 -0.069647521 -0.043095168
0.77123827 -0.067714006 -0.036805764
0.78060001 -0.063481525 -0.03177873
0.76140004 -0.05243808 -0.043353982
0.77106231 -0.052443668 -0.037596025
0.78033328 -0.052758869 -0.031767879
0.76062959 -0.036899198 -0.042823594
0.77182323 -0.037687842 -0.035700791
0.77999997 -0.03951893 -0.031754304
0.7620613 -0.022967791 -0.042601455
0.7700392 -0.022204302 -0.035427563
0.7627393 -0.0075256526 -0.042045899
0.76936424 -0.0073211258 -0.035034679
0.76340002 0.006411592 -0.042902298
0.77110171 0.007701084 -0.03638906
