# .PCD v0.7 - Point Cloud Data file format
VERSION 0.7
FIELDS x y z
SIZE 4 4 4
TYPE F F F
COUNT 1 1 1
WIDTH 1379
HEIGHT 1
VIEWPOINT 0 0 0 1 0 0 0
POINTS 1379
DATA ascii
0.43873307 -0.14370592 -0.1514554
0.4130846 -0.1264886 -0.15865834
0.42722633 -0.12780263 -0.15384279
0.43547621 -0.13048585 -0.15037031
0.41185048 -0.11199876 -0.15622982
0.42493796 -0.11346327 -0.15161541
0.40344986 -0.096451305 -0.15767668
0.41164079 -0.097389057 -0.15392557
0.42023534 -0.099477358 -0.15067689
0.40283489 -0.081585266 -0.15680163
0.4104538 -0.082803585 -0.15305877
0.41999999 -0.088715181 -0.150254
0.40147656 -0.067220077 -0.15518841
0.4078407 -0.068287626 -0.15171032
0.40059257 -0.052935973 -0.15347654
0.40572217 -0.052374713 -0.15081078
0.389 -0.030380083 -0.15297146
0.39568454 -0.036284756 -0.15241289
0.40633324 -0.040820722 -0.15098269
0.3886666 -0.020980289 -0.15227884
0.39382514 -0.02378799 -0.1511226
0.38656351 -0.0080590583 -0.15103596
0.39131573 -0.013344405 -0.15035713
0.38456959 0.0075083408 -0.1505902
0.382 0.017631423 -0.15021874
0.52499998 -0.27101147 -0.1357242
0.50388157 -0.25807059 -0.1398823
0.51253337 -0.26036084 -0.13651446
0.52499998 -0.2697407 -0.1357242
0.48792934 -0.24624135 -0.14640723
0.50096112 -0.24756968 -0.13970634
0.51087499 -0.25290012 -0.13547193
0.47724584 -0.23126179 -0.14900979
0.48700011 -0.23264503 -0.14529964
0.50010753 -0.2327906 -0.13834484
0.47485009 -0.2165297 -0.14826773
0.48714569 -0.2184304 -0.14365695
0.49918792 -0.21976028 -0.13763212
0.51199996 -0.21789555 -0.13525465
0.46307695 -0.20022057 -0.14942825
0.47278121 -0.20263168 -0.14656436
0.4842588 -0.20240408 -0.13933715
0.46007699 -0.18655257 -0.1482529
0.47331834 -0.18786862 -0.14368236
0.48410177 -0.18830334 -0.13781379
0.49733335 -0.18382618 -0.13538468
0.45860159 -0.17214207 -0.1470058
0.47210181 -0.17274776 -0.14074044
0.48180005 -0.17242934 -0.1362429
0.44723678 -0.15307979 -0.14879207
0.45772946 -0.15778695 -0.14553969
0.47169319 -0.1578729 -0.13955238
0.48218346 -0.15910758 -0.13630885
0.44584954 -0.14096545 -0.14809524
0.45593441 -0.14261527 -0.14326841
0.47177121 -0.14302742 -0.13784397
0.48050001 -0.14782356 -0.13526663
0.43325004 -0.12153324 -0.14905164
0.44193545 -0.12719688 -0.14575115
0.45687607 -0.12733589 -0.1396721
0.46821573 -0.13001111 -0.13644645
0.43135163 -0.11135793 -0.14875387
0.44170779 -0.11264258 -0.14430626
0.45591202 -0.11286991 -0.13794981
0.42696258 -0.096664831 -0.14727689
0.44137642 -0.098106109 -0.14214265
0.45609349 -0.097466744 -0.13733818
0.41798255 -0.080617271 -0.14935344
0.42718557 -0.082497358 -0.14553295
0.44012919 -0.081374787 -0.13912052
0.45371231 -0.085792385 -0.13668874
0.41484559 -0.066246159 -0.14850253
0.42680609 -0.06797795 -0.14442851
0.44148213 -0.067638814 -0.13802665
0.44999999 -0.073267274 -0.13557506
0.41280225 -0.052497692 -0.14734143
0.42623618 -0.052270081 -0.14166404
0.43865567 -0.05328095 -0.13697445
0.40217137 -0.032058135 -0.14939721
0.41220492 -0.037040431 -0.14612339
0.42629755 -0.037996043 -0.14037247
0.43934986 -0.03797308 -0.13655664
0.40054956 -0.02099181 -0.14868435
0.41175321 -0.022704422 -0.14400421
0.42663893 -0.022160729 -0.13800354
0.43588886 -0.028298911 -0.1358939
0.38742095 -0.0038929826 -0.14928885
0.39803851 -0.0080382479 -0.14766543
0.41146606 -0.0072084214 -0.14214286
0.42494676 -0.0079792086 -0.13736933
0.38734418 0.008252549 -0.1490598
0.39613998 0.0070472066 -0.14625591
0.41179183 0.0077447244 -0.14059868
0.42179361 0.0061131166 -0.13617167
0.3854219 0.023416204 -0.14776304
0.39719009 0.022827104 -0.1425208
0.41239211 0.021900149 -0.13766555
0.42135477 0.018831393 -0.13569312
0.38366005 0.037722245 -0.1461831
0.39521122 0.03688838 -0.14025058
0.41327345 0.035511516 -0.13618827
0.37400004 0.056490775 -0.14707281
0.38176608 0.051892839 -0.14473026
0.39622942 0.05277025 -0.13844393
0.40780953 0.050220303 -0.13535365
0.37235057 0.069052748 -0.14489037
0.38178423 0.06779895 -0.1415064
0.39485952 0.06632667 -0.13735382
0.40612504 0.064536259 -0.13550204
0.37188667 0.082152978 -0.14364894
0.38093409 0.081558682 -0.13910981
0.391862 0.082626753 -0.13602056
0.37058863 0.098372273 -0.14177272
0.37986764 0.097157717 -0.13754682
0.39251414 0.094704375 -0.13590409
0.36928847 0.11241921 -0.14083205
0.3782773 0.11268872 -0.136537
0.35841665 0.13192543 -0.14065562
0.36780545 0.127482 -0.139119
0.37722802 0.12413571 -0.13628682
0.35768101 0.1432893 -0.13956493
0.36591578 0.14185248 -0.13754044
0.35638404 0.15853159 -0.13846108
0.3637253 0.15619001 -0.13665999
0.35447487 0.1717224 -0.13676429
0.36070588 0.16688669 -0.13551129
0.3560518 0.1815666 -0.13673906
0.35999998 0.18450342 -0.13546872
0.55887496 -0.28759652 -0.12103532
0.53316849 -0.27298847 -0.1287595
0.54637283 -0.2761693 -0.1226338
0.555875 -0.27792716 -0.12077999
0.51996827 -0.25980523 -0.13291641
0.53295857 -0.26376474 -0.12828432
0.54631758 -0.26246765 -0.12294082
0.55499995 -0.26769039 -0.12064594
0.50807142 -0.24344423 -0.1342452
0.51637036 -0.24747965 -0.13089378
0.5334031 -0.24745406 -0.12704358
0.54542762 -0.24792135 -0.12251145
0.50737929 -0.22926402 -0.13434239
0.51658976 -0.23260868 -0.13244246
0.53198713 -0.2322574 -0.12709546
0.54517639 -0.23294319 -0.12223201
0.50491428 -0.21838929 -0.13449685
0.51839083 -0.21718951 -0.13132635
0.53102076 -0.21803075 -0.12444764
0.54247367 -0.21972534 -0.12105259
0.49119985 -0.20030254 -0.13359076
0.50273675 -0.20023885 -0.13153735
0.5169853 -0.20240088 -0.12685552
0.52921265 -0.20320766 -0.12171688
0.49017492 -0.18860933 -0.13430932
0.50359809 -0.18764094 -0.13192616
0.51646906 -0.18753345 -0.1248323
0.5257647 -0.18978766 -0.12042824
0.48820931 -0.17069089 -0.13315171
0.50152844 -0.17254768 -0.12891482
0.51700014 -0.17288531 -0.12305453
0.48902085 -0.15740804 -0.13229173
0.50188518 -0.15745077 -0.12634599
0.51455879 -0.15853204 -0.12201215
0.47674075 -0.13715589 -0.13371475
0.48654824 -0.14230494 -0.13004957
0.50168133 -0.14235899 -0.12362034
0.51163638 -0.14725184 -0.12059821
0.47303745 -0.12700364 -0.13294542
0.48729825 -0.12767677 -0.12819743
0.50123137 -0.12789406 -0.12261027
0.46278009 -0.1099985 -0.13401781
0.47201225 -0.11259866 -0.13098051
0.48619151 -0.11242912 -0.12525645
0.49856168 -0.11388005 -0.12156726
0.46269152 -0.09728656 -0.13379306
0.47248572 -0.097517535 -0.1293879
0.48514262 -0.097284183 -0.12278085
0.49650002 -0.10407282 -0.12114553
0.449 -0.075640358 -0.13454935
0.45865011 -0.081216402 -0.13252905
0.47153249 -0.082836643 -0.12744547
0.48542649 -0.082633547 -0.1223458
0.44846156 -0.064753622 -0.13447115
0.45737246 -0.0673467 -0.13132958
0.4718734 -0.067285731 -0.12536976
0.48282295 -0.069253378 -0.12156945
0.44568962 -0.051005352 -0.133469
0.4574163 -0.052905846 -0.12978086
0.47077587 -0.052517187 -0.1234991
0.48055553 -0.058553059 -0.12048626
0.44607416 -0.03700079 -0.13297683
0.45562664 -0.037065994 -0.12828571
0.46991837 -0.038293481 -0.12317397
0.43337929 -0.019209923 -0.13425606
0.4421114 -0.022506991 -0.13111314
0.4566853 -0.022045646 -0.12450974
0.46713319 -0.024682945 -0.12112655
0.43125361 -0.006115309 -0.13231495
0.44156268 -0.0080226921 -0.12824483
0.45617512 -0.0076641338 -0.12326045
0.46574998 -0.013826731 -0.12059373
0.42896533 0.0073595513 -0.13239682
0.43949002 0.0086148083 -0.12710764
0.4562878 0.0068936581 -0.12314998
0.42679146 0.022910342 -0.13153237
0.44206318 0.022995114 -0.12556231
0.45501584 0.02068075 -0.12142812
0.41777942 0.039015595 -0.13348542
0.42636409 0.037482947 -0.12925528
0.4399707 0.036865547 -0.1231884
0.40399992 0.054502852 -0.1344268
0.41272438 0.052715357 -0.13302678
0.42614079 0.05310753 -0.12732428
0.44043803 0.051439829 -0.12219781
0.40053651 0.072242737 -0.13382433
0.41173318 0.067100942 -0.13150226
0.42699745 0.067661658 -0.12527786
0.43691167 0.066199116 -0.12070344
0.39865297 0.083202817 -0.13276061
0.41229886 0.082730234 -0.1277419
0.42484969 0.08141885 -0.12271725
0.43616661 0.07678894 -0.12049931
0.38507998 0.10287811 -0.13450214
0.39905429 0.097693034 -0.13167329
0.41249004 0.09679383 -0.1254945
0.42203805 0.097487748 -0.12134801
0.38492143 0.11297529 -0.13384633
0.39617798 0.11269625 -0.13020647
0.41263264 0.11244754 -0.12497243
0.42188373 0.11164463 -0.12091053
0.3734 0.13370791 -0.1344258
0.38359705 0.12784848 -0.13213834
0.3980836 0.12764902 -0.12754162
0.4129878 0.12758048 -0.1233224
0.421 0.12099579 -0.12004551
0.37184623 0.14290473 -0.13412619
0.38191536 0.14222005 -0.13002516
0.39744982 0.14257456 -0.12485553
0.40836501 0.13966577 -0.12188281
0.36962861 0.15846738 -0.13327076
0.38318324 0.15755573 -0.12876748
0.39715105 0.15704876 -0.12257585
0.35796338 0.17564562 -0.13409419
0.36683443 0.17298613 -0.13157625
0.38291374 0.17276438 -0.12704472
0.39459693 0.17134009 -0.12213515
0.35866666 0.18136095 -0.13424349
0.36771736 0.18466349 -0.13033167
0.38036489 0.18747751 -0.12360305
0.3935 0.18424313 -0.12091
0.38440615 0.19625071 -0.12076753
0.61228573 -0.31613979 -0.10727087
0.61549997 -0.31772828 -0.10549483
0.58399999 -0.30052561 -0.11422977
0.59618169 -0.30430308 -0.11251263
0.60674006 -0.30777869 -0.1082618
0.56517494 -0.28908336 -0.11826923
0.57734978 -0.29188704 -0.11517425
0.59269929 -0.29197717 -0.11058689
0.60165387 -0.2960569 -0.10685354
0.56139112 -0.27740514 -0.11798847
0.57857817 -0.2765699 -0.11398082
0.58926421 -0.27851188 -0.1086031
0.55285716 -0.25822464 -0.11924479
0.56082189 -0.2626676 -0.11722547
0.57804418 -0.26247895 -0.11143313
0.58676672 -0.26219884 -0.10626382
0.55208343 -0.24727635 -0.11912014
0.56198597 -0.24713044 -0.11575402
0.57742244 -0.24813563 -0.1096863
0.58629411 -0.2519252 -0.10574618
0.55187017 -0.23096989 -0.11790331
0.56091231 -0.23202276 -0.11237009
0.57257795 -0.23362662 -0.10712834
0.54859304 -0.21716219 -0.1167673
0.56197309 -0.21754536 -0.11017393
0.57142419 -0.21949254 -0.10585982
0.53580701 -0.20016789 -0.11842592
0.54689103 -0.20244893 -0.11405161
0.56075853 -0.20325141 -0.10801403
0.52399999 -0.18128774 -0.11940247
0.53221601 -0.18747002 -0.11640131
0.54755121 -0.18715425 -0.1106265
0.55936992 -0.18855247 -0.10644493
0.52322227 -0.1724617 -0.11929528
0.53161997 -0.17252095 -0.1157373
0.54738563 -0.17265616 -0.10961058
0.55664003 -0.17512208 -0.1058416
0.52101064 -0.15657376 -0.11831284
0.53205675 -0.15730524 -0.11378054
0.54488951 -0.15814546 -0.10787181
0.50837493 -0.13855733 -0.11953303
0.51732099 -0.14241409 -0.11754847
0.53237879 -0.14262626 -0.11201134
0.54262322 -0.14237268 -0.10657085
0.50797141 -0.12695995 -0.11892189
0.51679969 -0.1268917 -0.11675528
0.53227186 -0.12762165 -0.11117741
0.54239708 -0.12875484 -0.10639789
0.50525022 -0.1109983 -0.11806217
0.51678485 -0.11261004 -0.11364574
0.53165317 -0.11292306 -0.10807546
0.53999996 -0.118855 -0.1051878
0.49279547 -0.094820514 -0.1188681
0.50201869 -0.097743444 -0.11651906
0.51633763 -0.097126536 -0.11109074
0.52815485 -0.098875977 -0.10651555
0.49268079 -0.083030723 -0.11915676
0.50237167 -0.082269639 -0.1159759
0.51596677 -0.082795583 -0.10930602
0.5252105 -0.082904495 -0.10560714
0.48943061 -0.066733949 -0.11803459
0.50207418 -0.067315802 -0.11320589
0.51525277 -0.068066873 -0.10768909
0.52499998 -0.074465111 -0.1056541
0.47735292 -0.04865215 -0.11966795
0.48751217 -0.052227646 -0.11658972
0.50132322 -0.052450366 -0.11029289
0.51263171 -0.053955354 -0.10641408
0.47658625 -0.035632428 -0.11837438
0.48804763 -0.037854582 -0.11471471
0.50113767 -0.03784655 -0.10912681
0.51125914 -0.03806252 -0.10611048
0.47153375 -0.021703696 -0.11755125
0.48824498 -0.022512851 -0.11333831
0.50162643 -0.022767328 -0.10819179
0.50999999 -0.029542705 -0.10510394
0.462625 -0.0040754681 -0.11931758
0.47041276 -0.0076728081 -0.11698146
0.48701933 -0.0072191325 -0.11190087
0.49826872 -0.0091471495 -0.1071252
0.46284717 0.0076118936 -0.11849595
0.47125107 0.0079455199 -0.11433054
0.48663023 0.0072729695 -0.10864787
0.49499997 0.0012801567 -0.10560654
0.44799998 0.029352846 -0.11979345
0.46068361 0.024582101 -0.11790679
0.47153929 0.021719562 -0.11347421
0.48531982 0.022303447 -0.10771937
0.49569997 0.020880125 -0.105356
0.44735706 0.037431788 -0.11895707
0.45628372 0.037256032 -0.1151548
0.47342283 0.037340306 -0.11044051
0.48247242 0.036330666 -0.10705838
0.44636256 0.054892316 -0.1188429
0.45455858 0.052169364 -0.11482472
0.47467166 0.052393407 -0.10927311
0.48373678 0.05276306 -0.1061671
0.44426313 0.067813702 -0.1179551
0.45625082 0.06795013 -0.11282971
0.47137114 0.066195391 -0.10771855
0.47999999 0.060495742 -0.10550411
0.43019176 0.085204981 -0.11922037
0.44275239 0.08228074 -0.11593978
0.45735088 0.08280956 -0.1093868
0.46652633 0.078584068 -0.1059877
0.42951778 0.097318113 -0.11793202
0.44038081 0.097949557 -0.11361419
0.45821729 0.097015217 -0.10905621
0.42847821 0.1133059 -0.11657827
0.44199109 0.11250317 -0.11027328
0.45333692 0.10943064 -0.10636861
0.41832089 0.12999627 -0.11850525
0.426404 0.12722772 -0.11451808
0.44165391 0.12673812 -0.10819678
0.45011112 0.12318778 -0.10510739
0.40399998 0.14935827 -0.11976082
0.41416681 0.14410774 -0.11722587
0.42703292 0.14175548 -0.11189044
0.43981311 0.14171807 -0.10690607
0.40301189 0.15962866 -0.118855
0.41138229 0.15717781 -0.11480192
0.42652658 0.15793054 -0.10860728
0.43743616 0.15466803 -0.1064
0.40072063 0.17341501 -0.11802959
0.41179588 0.1722354 -0.11303595
0.42446408 0.17300504 -0.10740179
0.435 0.17205015 -0.10508791
0.38877767 0.19215932 -0.11885467
0.39656621 0.18820995 -0.11743864
0.41192684 0.1878709 -0.1121974
0.42467743 0.1873765 -0.10680321
0.3883611 0.19754076 -0.11881321
0.39795122 0.19981834 -0.11378238
0.41132981 0.20144662 -0.10830072
0.42452317 0.20007755 -0.10621887
0.41335475 0.21150205 -0.10649905
0.6419999 -0.33151194 -0.092738196
0.64533329 -0.33260891 -0.09082593
0.62195939 -0.31853691 -0.098841339
0.63577032 -0.32193857 -0.092602827
0.61191666 -0.30543303 -0.1040162
0.62160504 -0.30777881 -0.098783225
0.63613474 -0.30803594 -0.092443399
0.64499998 -0.30589551 -0.09025868
0.59899998 -0.28649622 -0.10411684
0.60728002 -0.29333228 -0.10343097
0.62249982 -0.29244915 -0.097350135
0.63284433 -0.29424414 -0.091752984
0.59526086 -0.27593952 -0.10390207
0.60756332 -0.27682993 -0.10083724
0.62200809 -0.27794033 -0.095145956
0.63128555 -0.27799934 -0.090885885
0.59377927 -0.26146537 -0.10244256
0.60737836 -0.26250458 -0.097956173
0.62125272 -0.26338688 -0.093155555
0.63 -0.26980802 -0.090700775
0.58324999 -0.24143374 -0.1040839
0.59215641 -0.24750572 -0.10082904
0.60625255 -0.24706773 -0.094383813
0.61610335 -0.24767832 -0.090842314
0.58003336 -0.23148355 -0.10296359
0.59128696 -0.23262313 -0.098637715
0.6056965 -0.23238902 -0.093705848
0.61499989 -0.23708507 -0.090525746
0.57864606 -0.21727309 -0.10259093
0.59320563 -0.21722971 -0.098212518
0.60327768 -0.21805222 -0.0928187
0.56704003 -0.20097645 -0.10448906
0.57648277 -0.20219274 -0.10180657
0.5922823 -0.20270988 -0.096606612
0.60310966 -0.20334671 -0.091682009
0.56607163 -0.18607117 -0.10368954
0.57731956 -0.18722656 -0.099607982
0.59081727 -0.18788862 -0.093441598
0.60221428 -0.19189736 -0.091002055
0.55399996 -0.16574141 -0.10433955
0.56315088 -0.17142357 -0.10257713
0.57729977 -0.17272162 -0.096102707
0.58771425 -0.17442441 -0.091126755
0.55131388 -0.15515628 -0.10355109
0.56236929 -0.15744637 -0.099246509
0.57647055 -0.15826757 -0.092935942
0.58599997 -0.15829381 -0.090511635
0.55016989 -0.14224336 -0.10292946
0.56207496 -0.14250593 -0.097577393
0.57510108 -0.14238861 -0.092136875
0.54923236 -0.12745827 -0.10294999
0.56235003 -0.12745728 -0.096901469
0.57505322 -0.12836513 -0.091621749
0.53764278 -0.11096617 -0.10472865
0.54654169 -0.11198119 -0.10116655
0.56201839 -0.11252236 -0.094453238
0.5725714 -0.11691895 -0.090854868
0.53506321 -0.095279373 -0.10317978
0.54716742 -0.097854279 -0.098977283
0.56150019 -0.098330289 -0.092798524
0.53295034 -0.08239378 -0.10315739
0.54607338 -0.082167648 -0.096334845
0.55778569 -0.084695622 -0.091206118
0.52254999 -0.064761177 -0.1037688
0.53206378 -0.067274243 -0.099890567
0.54584605 -0.067986265 -0.093284711
0.55577779 -0.071208633 -0.090327136
0.5195117 -0.051373817 -0.10289494
0.53150547 -0.052965019 -0.097946219
0.54524624 -0.052480973 -0.09239275
0.51848191 -0.037377868 -0.10244877
0.53213155 -0.037344761 -0.096290633
0.54252034 -0.038739517 -0.091598459
0.50769496 -0.020158404 -0.10377997
0.51633173 -0.022799652 -0.099875987
0.53204405 -0.022537533 -0.093628459
0.54176474 -0.025805378 -0.090311222
0.50447834 -0.0063528689 -0.10262346
0.51665014 -0.0075708525 -0.097757392
0.52945781 -0.0080374377 -0.092619687
0.49352783 0.010278942 -0.10411974
0.50244975 0.0074299895 -0.10069055
0.51685131 0.0079514077 -0.094503678
0.5275892 0.0048245746 -0.09164013
0.49235293 0.026621256 -0.10375483
0.50232178 0.021505827 -0.10090405
0.51610088 0.022772463 -0.093799226
0.48999187 0.0372301 -0.103074
0.50218606 0.038117871 -0.098460697
0.51417673 0.036640536 -0.09311641
0.49048826 0.054161847 -0.10297293
0.5003736 0.05231398 -0.096505158
0.51140738 0.050296593 -0.091243342
0.47736233 0.0692707 -0.10360973
0.48662147 0.068148457 -0.098923475
0.50138891 0.066751353 -0.093086354
0.50999999 0.063042261 -0.090292759
0.46399996 0.088054769 -0.1042332
0.4724406 0.082346693 -0.10285056
0.48778844 0.082156636 -0.097758092
0.49761873 0.083090901 -0.092020445
0.46390474 0.097820558 -0.10417601
0.47141129 0.098248832 -0.1001907
0.48571256 0.097242363 -0.094616629
0.49615559 0.093159243 -0.091877937
0.45854536 0.11330872 -0.10288566
0.47155553 0.11220543 -0.097992294
0.48362741 0.11236788 -0.092432156
0.44802442 0.13099054 -0.10421307
0.45620561 0.12726952 -0.10191649
0.47088155 0.12696636 -0.097688563
0.48564848 0.12593803 -0.092296727
0.44563201 0.14329734 -0.10388737
0.45749569 0.14250639 -0.099886656
0.4729999 0.14282888 -0.095575996
0.48365852 0.14156978 -0.09178488
0.4311429 0.16430521 -0.10474823
0.44345638 0.15866069 -0.10295697
0.45862383 0.15789677 -0.098317519
0.47120628 0.1559902 -0.093504399
0.48247701 0.15656039 -0.091011293
0.4298974 0.17197178 -0.10461596
0.4426893 0.17199779 -0.10244597
0.45775256 0.17288764 -0.097565383
0.47122002 0.17219706 -0.092591532
0.48185715 0.16653118 -0.090529636
0.43153945 0.18870029 -0.10384234
0.44166088 0.18817014 -0.10085133
0.45591322 0.18682458 -0.094708733
0.4675926 0.1817908 -0.090941474
0.41736361 0.20839094 -0.1046219
0.42961606 0.20350921 -0.10257398
0.44143507 0.20318961 -0.097396418
0.45374775 0.2015316 -0.092587233
0.4171429 0.21239454 -0.10442675
0.42872235 0.21521071 -0.10052584
0.44206753 0.21760717 -0.094178826
0.45067459 0.21487595 -0.090814084
0.44319451 0.226662 -0.092223227
0.64893109 -0.33348957 -0.087051064
0.64244705 -0.32162642 -0.088726372
0.64719737 -0.32131428 -0.085251004
0.64238465 -0.30915308 -0.089572996
0.6481567 -0.30823386 -0.085936949
0.63991177 -0.29036471 -0.085721619
0.64528573 -0.29792377 -0.084348835
0.63981384 -0.27767941 -0.083680905
0.62639999 -0.25891602 -0.088664018
0.63812989 -0.26275164 -0.082047172
0.62322348 -0.24690689 -0.087851271
0.63623661 -0.2480078 -0.081298158
0.61312497 -0.22943927 -0.089755133
0.62205559 -0.23223388 -0.087393768
0.63435185 -0.23283273 -0.080534637
0.61074203 -0.21587862 -0.088959001
0.62225515 -0.21663511 -0.083946377
0.63136929 -0.21892348 -0.077567235
0.61045992 -0.20276691 -0.088632189
0.62135357 -0.20242578 -0.08249566
0.63154161 -0.2023509 -0.076146707
0.59844446 -0.18236393 -0.088892847
0.60842687 -0.1866428 -0.086794317
0.62088174 -0.18762444 -0.080395319
0.63122725 -0.19032915 -0.076063082
0.59402812 -0.17150919 -0.088384293
0.60769039 -0.17230211 -0.083879545
0.62150496 -0.17260934 -0.078072734
0.63066667 -0.16917393 -0.075363867
0.58236361 -0.15269713 -0.089607343
0.59276372 -0.15681846 -0.087099373
0.60639375 -0.15798153 -0.081994914
0.62100011 -0.15782841 -0.077733733
0.63000005 -0.15950485 -0.075962193
0.58153576 -0.14294223 -0.089419037
0.59219366 -0.14201786 -0.085429668
0.60609275 -0.14173259 -0.079115584
0.61782336 -0.1442588 -0.076161444
0.58196533 -0.12712237 -0.089434788
0.59312242 -0.12762544 -0.085550569
0.60621506 -0.12775338 -0.078525528
0.61499995 -0.13337782 -0.075145826
0.56883335 -0.1082205 -0.089695677
0.57766318 -0.11123485 -0.087379046
0.59313452 -0.11260456 -0.082100481
0.60351425 -0.11377523 -0.077159092
0.56774992 -0.096655473 -0.089341372
0.57708126 -0.098003902 -0.086325124
0.59219539 -0.097335696 -0.080670252
0.60214287 -0.09759856 -0.07632862
0.56257129 -0.080943458 -0.088040091
0.57639307 -0.082232811 -0.084052928
0.59239805 -0.083355851 -0.078778833
0.60038453 -0.087505125 -0.075967543
0.55323076 -0.06277886 -0.089363754
0.56269288 -0.067236789 -0.086945474
0.5775196 -0.067722969 -0.081354611
0.58836669 -0.068248779 -0.076571211
0.55323058 -0.052991025 -0.089363761
0.56234926 -0.052496791 -0.087010823
0.5771082 -0.052348088 -0.081137389
0.58642852 -0.053777982 -0.076249324
0.54960918 -0.036293328 -0.088267542
0.56149977 -0.037425205 -0.084418252
0.57723612 -0.03817926 -0.078804336
0.58566666 -0.041015543 -0.075341329
0.5383333 -0.015113046 -0.089228034
0.54740393 -0.021677718 -0.086413085
0.5616551 -0.022620592 -0.080357194
0.57367289 -0.025188075 -0.076676525
0.53680629 -0.004303867 -0.084877789
0.54473835 -0.0091422256 -0.082395174
0.55923337 -0.013595656 -0.077826463
0.52242601 0.011495704 -0.077494286
0.5289399 0.0068928739 -0.083955921
0.52042872 0.023295876 -0.082522362
0.52523071 0.01707032 -0.086764149
0.52034712 0.03772239 -0.08267884
0.51916575 0.052180827 -0.086238109
0.52822864 0.053194612 -0.079011701
0.50783867 0.071575634 -0.08893127
0.51614475 0.067233533 -0.085822389
0.53266859 0.06730856 -0.079286925
0.53999996 0.072850347 -0.07556542
0.50560683 0.082271785 -0.088443846
0.51683182 0.082608946 -0.083723716
0.53258073 0.082532376 -0.078180045
0.53999996 0.078514367 -0.07556542
0.49217859 0.10173617 -0.089206204
0.50239408 0.098690987 -0.08722268
0.51692498 0.096142881 -0.082370587
0.53056973 0.097624652 -0.077042893
0.49151379 0.11235848 -0.089054093
0.50368994 0.11328006 -0.085647874
0.51725531 0.11186978 -0.080982558
0.5316332 0.11173658 -0.077156886
0.49279991 0.12911208 -0.089100935
0.50179774 0.12763496 -0.084136106
0.51544362 0.12687081 -0.077739939
0.52768183 0.12188746 -0.075968072
0.49016237 0.14329505 -0.087349355
0.50036377 0.14236127 -0.081683807
0.51459557 0.14203627 -0.077056736
0.48853251 0.15791294 -0.086125232
0.50097865 0.15730762 -0.079677954
0.51268315 0.15771066 -0.076042302
0.47738761 0.17562874 -0.087263159
0.48704648 0.17091917 -0.083647661
0.5015493 0.17189944 -0.07730078
0.51100004 0.16555154 -0.075627953
0.46242562 0.19150998 -0.088836342
0.47300771 0.18727244 -0.086141728
0.48619702 0.18898197 -0.08095742
0.50084066 0.18711162 -0.077663265
0.46016476 0.20349395 -0.087920837
0.47140187 0.20282504 -0.083152659
0.48694134 0.20252745 -0.07826823
0.49717644 0.19795717 -0.076034911
0.447 0.22476384 -0.089956924
0.45766786 0.21786298 -0.086042024
0.47323337 0.21603742 -0.080351993
0.4837563 0.21550225 -0.076554373
0.49599999 0.22459042 -0.075010039
0.44802937 0.22810774 -0.088887036
0.45715189 0.23005769 -0.08386296
0.47283104 0.23428881 -0.078729838
0.48453328 0.23232996 -0.076917551
0.49645001 0.23080282 -0.07531818
0.4738788 0.24163075 -0.076196939
0.4823333 0.24135995 -0.07527785
0.64149994 -0.25972465 -0.074243777
0.63966668 -0.24883325 -0.074443996
0.63774991 -0.23418228 -0.074375443
0.63510871 -0.21569706 -0.071144924
0.63757414 -0.20396157 -0.071124367
0.62899995 -0.18056679 -0.074826784
0.63601267 -0.18761802 -0.072375037
0.62899995 -0.17904428 -0.074826784
0.63609076 -0.17300679 -0.071954735
0.6275 -0.1517846 -0.074648336
0.636356 -0.15743496 -0.070326537
0.62399995 -0.14083642 -0.072560862
0.63474452 -0.14251442 -0.066651113
0.61249995 -0.12344722 -0.074840359
0.62206858 -0.12765734 -0.071943566
0.63625705 -0.12718605 -0.065019794
0.61022907 -0.11152696 -0.073820725
0.62164509 -0.11227273 -0.070110738
0.63654041 -0.11312512 -0.064164802
0.60825759 -0.096785821 -0.072148226
0.62138653 -0.09752316 -0.066196181
0.63298029 -0.09808474 -0.06136037
0.597 -0.078417875 -0.074872866
0.60573769 -0.082487181 -0.071525753
0.6202783 -0.082533136 -0.065340355
0.63164866 -0.083082177 -0.061010145
0.5953114 -0.066655666 -0.073758431
0.60742611 -0.067234159 -0.06910269
0.62141198 -0.068089858 -0.063060217
0.59349507 -0.051612254 -0.072459593
0.60645157 -0.052535433 -0.065854624
0.61687988 -0.056103621 -0.061558854
0.58299994 -0.030949036 -0.074998297
0.5922426 -0.037727639 -0.071761504
0.60520107 -0.037465475 -0.06462045
0.56766665 -0.015020508 -0.073940597
0.57938671 -0.019591946 -0.072320901
0.59166193 -0.022653194 -0.068222888
0.60479504 -0.025216859 -0.063156731
0.53259993 -0.0025093944 -0.067441911
0.54568046 -0.006827937 -0.068079658
0.56098759 -0.010919668 -0.067671701
0.57536 -0.013926027 -0.066016331
0.59349996 -0.01474634 -0.060548015
0.5187791 0.0082780402 -0.067079253
0.52596545 0.0012134514 -0.069801383
0.51620823 0.022620844 -0.067611709
0.51894546 0.036385015 -0.068146072
0.5253486 0.043588642 -0.06503763
0.53183198 0.051665355 -0.068122678
0.54067999 0.058807787 -0.064840518
0.53899997 0.060973488 -0.074121028
0.54535329 0.067020364 -0.069079556
0.56005633 0.07122986 -0.063060246
0.54718733 0.082571626 -0.071278326
0.5617364 0.082843892 -0.063932531
0.57000005 0.079197079 -0.060910687
0.53743893 0.09607058 -0.074190602
0.54739237 0.098215818 -0.069846377
0.56131297 0.096840277 -0.063288458
0.53651994 0.11637232 -0.073257834
0.54631257 0.11233131 -0.068109199
0.55804145 0.11120828 -0.061617058
0.5212 0.13187876 -0.074360244
0.53373951 0.12780808 -0.071681134
0.54665565 0.12738711 -0.064928427
0.5554285 0.12128133 -0.060952935
0.52101988 0.14348401 -0.073433779
0.53067124 0.1420255 -0.067921855
0.54669636 0.14107445 -0.06220489
0.52041012 0.15783915 -0.072326578
0.53118074 0.15749238 -0.0662921
0.54511607 0.15725763 -0.061670393
0.50899994 0.17257072 -0.074512333
0.51730847 0.17271265 -0.070939295
0.53030217 0.17184441 -0.064593554
0.54303986 0.17103572 -0.06123386
0.50677562 0.19050866 -0.073716111
0.51666158 0.18701749 -0.069815628
0.52952778 0.18770954 -0.063407682
0.54277784 0.18825798 -0.060288191
0.49346668 0.20671989 -0.07436125
0.50270212 0.2033792 -0.072005019
0.51605958 0.20245329 -0.067210287
0.5297274 0.20175663 -0.062380314
0.49202859 0.21561866 -0.074203841
0.50213194 0.2171523 -0.070230618
0.51647609 0.21726064 -0.063553371
0.52676189 0.21228656 -0.060801059
0.4903751 0.23819771 -0.07342232
0.50365883 0.23409337 -0.070550933
0.51507008 0.23243806 -0.063677408
0.47825 0.24472117 -0.074254751
0.48950589 0.24596693 -0.071138836
0.50059968 0.24661709 -0.064203478
0.51231039 0.24266016 -0.06091468
0.50127584 0.25671047 -0.062297188
0.63990629 -0.12351304 -0.058088243
0.64165455 -0.11276108 -0.05717833
0.63894367 -0.097570904 -0.056069434
0.63935518 -0.082076125 -0.055526748
0.64500016 -0.079053625 -0.049499679
0.62783325 -0.062457349 -0.058733284
0.63770616 -0.067575276 -0.053532343
0.64499998 -0.074312098 -0.049152792
0.61339998 -0.047906213 -0.059115577
0.6229127 -0.051687472 -0.055895358
0.63196331 -0.052282479 -0.049673788
0.61236948 -0.037147637 -0.059058607
0.62162846 -0.037822094 -0.054666717
0.6356945 -0.036901217 -0.048368819
0.59499997 -0.016223818 -0.059262276
0.60985446 -0.020653792 -0.05789246
0.62041414 -0.023918835 -0.054116525
0.63300008 -0.025647609 -0.048106935
0.52200001 -0.0018975177 -0.047469623
0.53087032 -0.0048103263 -0.051703926
0.5451892 -0.0070153349 -0.056942582
0.56157148 -0.011109724 -0.05891208
0.57349992 -0.012745662 -0.055614136
0.59566665 -0.014800175 -0.055802818
0.61199999 -0.014218425 -0.053549889
0.51545614 0.0078339381 -0.052335307
0.52528572 0.00051083945 -0.057403971
0.51448441 0.022506772 -0.052501183
0.51862454 0.036019731 -0.052352801
0.52522779 0.043394394 -0.053502508
0.5306533 0.050552685 -0.052656487
0.54402494 0.058251578 -0.05301832
0.55071998 0.061607029 -0.056232665
0.56247509 0.066679537 -0.057156235
0.57646072 0.070047371 -0.053232286
0.5887931 0.07294739 -0.049106207
0.57808656 0.082544751 -0.056288816
0.59150785 0.082787909 -0.048851319
0.56747824 0.1002804 -0.059186693
0.57699305 0.097576924 -0.055495474
0.5918721 0.097276472 -0.04859753
0.59999996 0.09401565 -0.045723531
0.56516683 0.11293274 -0.058163021
0.57777989 0.11211962 -0.053371772
0.58988196 0.11247253 -0.047753759
0.56164467 0.12714128 -0.057526398
0.57715523 0.12772061 -0.052119903
0.5885511 0.12672347 -0.047316834
0.55349994 0.14925112 -0.059594005
0.56252104 0.14235421 -0.057667494
0.57705247 0.14230673 -0.05210695
0.58886349 0.1436504 -0.046879623
0.55142003 0.15994605 -0.058887027
0.56150323 0.15747988 -0.055143602
0.5764361 0.15749948 -0.049406115
0.58756745 0.15442057 -0.046401307
0.55014277 0.17238837 -0.057388622
0.56125712 0.17241824 -0.050971095
0.57383591 0.16980451 -0.046753876
0.53899997 0.19361407 -0.059772089
0.54995507 0.18796054 -0.057387047
0.56121713 0.18751197 -0.049991351
0.56999999 0.18267441 -0.045736488
0.53580749 0.2050378 -0.058283597
0.5467754 0.20271157 -0.054146282
0.56016278 0.20142058 -0.048550162
0.52333331 0.22092006 -0.059301283
0.53277141 0.2176231 -0.056256682
0.54715729 0.21730019 -0.049659211
0.55576187 0.21402627 -0.046045654
0.52318752 0.23367496 -0.059178475
0.53201503 0.23332675 -0.055205654
0.54415298 0.23177971 -0.048497707
0.50849992 0.25281456 -0.059261292
0.51873589 0.24734922 -0.057670984
0.53182113 0.24693683 -0.051876429
0.54529172 0.24743192 -0.046435852
0.50699997 0.26025137 -0.059086487
0.51850426 0.26160562 -0.055946507
0.53227907 0.26200524 -0.049863357
0.54049999 0.25651306 -0.04511353
0.53197217 0.27170745 -0.047590051
0.63388884 -0.048592757 -0.044612315
0.63966668 -0.03751285 -0.044057425
0.53750002 -0.015451381 -0.034235127
0.53999996 -0.01719307 -0.034471616
0.63684213 -0.026322272 -0.044067375
0.51840359 -0.0039485162 -0.037162222
0.52873296 -0.010888523 -0.03733997
0.50788468 0.011587668 -0.032181054
0.51300746 0.0067337016 -0.038392205
0.50728565 0.018503018 -0.032520507
0.51173228 0.02328339 -0.038443118
0.51764566 0.03721258 -0.03748595
0.52499998 0.044564057 -0.044243321
0.52400011 0.045747533 -0.035704732
0.53025186 0.050141253 -0.037857562
0.54938465 0.05789046 -0.039980628
0.55949998 0.06148681 -0.041733682
0.57254541 0.06464196 -0.042073801
0.59503829 0.07091973 -0.039153498
0.60303712 0.073139064 -0.03389658
0.59736943 0.07933519 -0.043005992
0.60572708 0.083120324 -0.036329232
0.59866661 0.10362759 -0.043850388
0.60760707 0.097121403 -0.039583042
0.61677963 0.098389834 -0.03261441
0.59711307 0.11249702 -0.043783292
0.60652542 0.11255949 -0.038649388
0.61713529 0.11243131 -0.032547545
0.59630132 0.12736087 -0.043476138
0.60707158 0.1273969 -0.037441596
0.61778241 0.12770618 -0.031670943
0.59602904 0.14316437 -0.04330999
0.60675311 0.1430634 -0.037196372
0.61608678 0.14090207 -0.031735893
0.58350009 0.16336642 -0.044371519
0.59350473 0.1582984 -0.039033871
0.60573328 0.15459809 -0.032883123
0.57986867 0.17352098 -0.042769101
0.59046149 0.17196736 -0.036084887
0.60166663 0.17325494 -0.030641023
0.56791663 0.18979274 -0.044653036
0.57835567 0.18706514 -0.041462079
0.59131902 0.1874892 -0.035346959
0.60422862 0.18911898 -0.031041857
0.56621426 0.20142116 -0.044583719
0.57836598 0.20262209 -0.041946661
0.59144449 0.20272189 -0.036584586
0.60363644 0.20242715 -0.031307977
0.5535714 0.22347674 -0.044035204
0.56145447 0.21791303 -0.042728193
0.57876062 0.21755406 -0.040066913
0.59134829 0.216616 -0.036891252
0.6055789 0.21799769 -0.032193821
0.55139107 0.23293787 -0.042904481
0.56186247 0.23152362 -0.039469082
0.57813889 0.23203714 -0.036588788
0.59166062 0.23241095 -0.033355013
0.60341173 0.22776566 -0.031633455
0.55133969 0.24677992 -0.043681964
0.56113726 0.24886106 -0.039553247
0.57819235 0.24772038 -0.034017008
0.58938766 0.24638854 -0.031202335
0.53820574 0.26461914 -0.044155281
0.54512662 0.26053137 -0.042655684
0.56272173 0.26172143 -0.03823939
0.57482159 0.26225576 -0.032569807
0.53657693 0.27253217 -0.043886174
0.54916656 0.28066543 -0.040457323
0.56426346 0.27764109 -0.036487494
0.57429171 0.27725354 -0.031792268
0.56438595 0.28758609 -0.034651089
0.57232153 0.28863388 -0.031015044
0.53489995 -0.015678106 -0.022618629
0.50899994 -0.00073704234 -0.015383723
0.51647288 -0.0043109111 -0.02245893
0.5296281 -0.011824891 -0.022586701
0.50833344 0.010791614 -0.026606245
0.5115236 0.0069733807 -0.021780334
0.50828558 0.021282976 -0.023575576
0.51097083 0.022719568 -0.021961581
0.50899988 0.030885464 -0.016478699
0.51502728 0.03727961 -0.022766324
0.52247995 0.047268007 -0.018829271
0.52722853 0.049854647 -0.024582975
0.61199999 0.085526451 -0.028864574
0.61996585 0.09982089 -0.027633645
0.62159109 0.1128695 -0.027148323
0.62403357 0.12819454 -0.025742903
0.62062585 0.14225243 -0.025189577
0.60882974 0.16008733 -0.028512565
0.61913407 0.15717293 -0.022752529
0.60730302 0.17179437 -0.028071661
0.62335205 0.17160377 -0.021931794
0.63091165 0.17560712 -0.016881522
0.6106571 0.18863446 -0.028559661
0.62228698 0.18882774 -0.022816997
0.63152426 0.18477984 -0.017764948
0.61140496 0.20248508 -0.027176851
0.620884 0.20227514 -0.020276349
0.61163825 0.21613753 -0.027868429
0.61903858 0.21775572 -0.02089644
0.59724993 0.23814981 -0.029614327
0.60802841 0.23402749 -0.026999114
0.61747956 0.23177025 -0.020304428
0.58366668 0.25392526 -0.029882509
0.59499997 0.24959391 -0.028095519
0.60645181 0.24803658 -0.023903556
0.6161046 0.24693927 -0.018297624
0.5812223 0.26272571 -0.029374029
0.59324849 0.26279727 -0.025553687
0.60667676 0.2624191 -0.018961979
0.61500001 0.25664091 -0.016106784
0.58182764 0.27889037 -0.02860564
0.59239805 0.27757093 -0.022547308
0.60401613 0.27557281 -0.016601974
0.57938319 0.2918807 -0.027039992
0.59229314 0.29231277 -0.020533077
0.60044998 0.2913588 -0.015386541
0.59364808 0.30261129 -0.018265227
0.59999996 0.30266464 -0.015229912
0.5211904 -0.016314231 -0.0029427605
0.52933323 -0.016597722 -0.010145586
0.50617963 -0.0030598168 -0.0064376448
0.51603085 -0.0095990179 -0.0076906607
0.52668959 -0.013557315 -0.011702052
0.50526422 0.0067256279 -0.0064856559
0.5104363 0.010950474 -0.012822431
0.50692004 0.022968614 -0.0068991636
0.51022226 0.018060038 -0.013225874
0.50820571 0.033654116 -0.0062180227
0.51256424 0.040519893 -0.0087335063
0.51661253 0.047128044 -0.0086931763
0.63105881 0.17283554 -0.014340986
0.62764704 0.19238947 -0.013965392
0.6315791 0.18658036 -0.013993477
0.62723184 0.20299788 -0.013014815
0.62443143 0.21462895 -0.013121003
0.62058979 0.23417979 -0.010992473
0.61981475 0.24734005 -0.010067491
0.61329168 0.26619452 -0.013711395
0.61940396 0.2621558 -0.0080270525
0.61015785 0.27960196 -0.010509479
0.61893636 0.27593917 -0.0053540906
0.60708916 0.29203656 -0.0077702645
0.59849995 0.3047069 -0.014032918
0.60744637 0.30639252 -0.0065429108
0.51738399 -0.017733296 0.0083806692
0.50292253 -0.0055187652 0.0079025226
0.51272839 -0.012803762 0.0061899438
0.49863705 0.0076642688 0.0074997498
0.50284314 0.022732051 0.0074717924
0.50643748 0.03496284 0.0079710335
0.51152885 0.04216158 0.0063695083
0.51456326 0.048122104 0.0083057741
0.61279994 0.30862451 0.00075879146
0.62299997 0.31426677 0.00077142147
0.73299998 0.3449159 0.012733995
0.73703527 0.34242839 0.010041112
0.7167666 0.35867181 0.010140997
0.7267319 0.35225764 0.0083344057
0.73522222 0.34596118 0.0055904626
0.71314299 0.36280257 0.0097863255
0.50580436 -0.017877178 0.024743529
0.51189822 -0.019426707 0.018902477
0.49141905 -0.0052237893 0.024205506
0.49896574 -0.010708128 0.020175647
0.49161592 0.0070659425 0.023842225
0.49559471 0.009855275 0.017004857
0.49324715 0.020567862 0.027542558
0.49847391 0.023294447 0.020817958
0.50421041 0.036937803 0.023186924
0.51022232 0.043035585 0.017415348
0.50503701 0.04667262 0.02761931
0.51190686 0.047181141 0.017659089
0.73133332 0.34408939 0.021080192
0.73912305 0.34221068 0.020963974
0.75447059 0.34247449 0.021021856
0.71695977 0.35653886 0.022709165
0.72478336 0.34941775 0.022239491
0.73866665 0.34559435 0.026540052
0.75600004 0.34662169 0.027318424
0.77242863 0.34797287 0.026742008
0.71245098 0.3628349 0.022146694
0.50149995 -0.030668844 0.041885801
0.49399999 -0.015462752 0.043651279
0.50188482 -0.02177161 0.038378619
0.50999999 -0.025427811 0.031488165
0.47866666 -0.00030690874 0.044226568
0.48670936 -0.0070363875 0.03741809
0.49587497 -0.014671235 0.035861798
0.47842479 0.0081748664 0.043781102
0.48478571 0.007346082 0.036250252
0.47871438 0.016909428 0.044065669
0.48752266 0.022632793 0.037252836
0.4933449 0.031006517 0.036936499
0.49991417 0.038261216 0.037538547
0.50452453 0.046720728 0.03753189
0.7147547 0.35689634 0.0384515
0.72618407 0.35109827 0.037123542
0.74143755 0.34775189 0.037496008
0.75648898 0.34893146 0.037909262
0.77033341 0.3494266 0.033271391
0.71079504 0.36263818 0.036553666
0.49347365 -0.016411003 0.050896827
0.4983348 -0.023069773 0.052574236
0.47774544 -0.0017797555 0.049509156
0.48739991 -0.0081923548 0.051932111
0.49653846 -0.012061684 0.058635823
0.47672912 0.0081587983 0.051662799
0.48180428 0.0040973071 0.058105674
0.47578132 0.020400947 0.053338915
0.48373204 0.027010715 0.050171934
0.48978749 0.032243032 0.053672194
0.49849254 0.038319226 0.051221736
0.71466655 0.34377667 0.057478175
0.72711104 0.34320989 0.056522124
0.73958337 0.34393084 0.057002075
0.75299996 0.34460616 0.058640383
0.70288116 0.35573283 0.056253634
0.70949131 0.35092461 0.051685296
0.72575873 0.34771422 0.049248375
0.74107146 0.34713581 0.049827885
0.75696546 0.34765485 0.051791925
0.76555544 0.34788182 0.054264475
0.70272732 0.36097872 0.054515168
0.70570582 0.36141229 0.047923278
0.47690916 -0.017644754 0.071873941
0.48681027 -0.020177854 0.068109371
0.49930629 -0.024146618 0.063850999
0.47584218 -0.01416696 0.072487488
0.48799995 -0.010188095 0.066506565
0.5022279 -0.0070542283 0.067424096
0.50999999 -0.00073848641 0.073864624
0.47668752 0.013201883 0.061492465
0.48737305 0.0073106117 0.062695712
0.50272918 0.0054755709 0.06839738
0.51278043 0.0061560138 0.073350556
0.47647336 0.020876041 0.062417399
0.48621988 0.025456227 0.068402447
0.49777773 0.021522103 0.074543625
0.4887515 0.034885585 0.067659244
0.49575001 0.035201363 0.070122041
0.69952369 0.34304205 0.070342995
0.71144921 0.34207025 0.066704646
0.72658682 0.34250161 0.066309363
0.73963153 0.34413412 0.06575013
0.75299996 0.34460616 0.064107463
0.69658065 0.35144523 0.06704928
0.70499998 0.34596097 0.061158381
0.74339992 0.34600863 0.068725541
0.75518745 0.34648621 0.06822288
0.76599997 0.34746537 0.073247448
0.70099998 0.36040035 0.060245883
0.48557147 -0.030534204 0.088514082
0.47691664 -0.016659837 0.078506477
0.48350665 -0.02301625 0.083561465
0.4589321 -0.0065518906 0.083171003
0.47167596 -0.010478084 0.083554737
0.48502368 -0.0083744349 0.079588033
0.50121522 -0.003762329 0.077593096
0.50999999 -0.00082078407 0.075757168
0.47567993 0.0065801344 0.082104392
0.48485231 0.0075360998 0.086160317
0.50291169 0.0062945392 0.079231702
0.51412761 0.0079715829 0.076870039
0.47291672 0.020777173 0.08879903
0.48409247 0.020196484 0.088159718
0.49906191 0.021774739 0.07693705
0.49832439 0.033628289 0.07690239
0.69773614 0.34325719 0.08337415
0.71101207 0.34219578 0.08292827
0.72619671 0.34312898 0.083020464
0.74148387 0.34368187 0.086652398
0.75678945 0.34370023 0.087210491
0.76499999 0.34330833 0.089197278
0.68799984 0.35067227 0.088111363
0.69122952 0.34918949 0.081133425
0.74306881 0.34621292 0.080898777
0.75665784 0.34797329 0.079868756
0.7676 0.34955117 0.078480929
0.48668042 -0.021700718 0.097551875
0.47513589 -0.0060923081 0.095317863
0.48175749 -0.012819976 0.099257201
0.47191885 0.0084930891 0.096016005
0.48328364 0.0083861165 0.091794483
0.4627988 0.021156307 0.093512237
0.46674275 0.017703194 0.095712408
0.48455557 0.026708975 0.090288669
0.68751216 0.34380445 0.098746695
0.696145 0.33858085 0.097955786
0.71037513 0.33639064 0.096185684
0.72697365 0.33963391 0.09597186
0.74211109 0.34297881 0.09613844
0.75593746 0.34395584 0.092711322
0.76533335 0.34345794 0.091706298
0.68471116 0.34823895 0.097202696
0.75835997 0.34661269 0.099286996
0.7724241 0.34740719 0.10059836
0.77999997 0.3487812 0.10478938
0.45875004 -0.015746646 0.11902956
0.47439677 -0.021016199 0.11553763
0.48373893 -0.021808999 0.10840993
0.43105945 -0.0052967155 0.11704843
0.44233623 -0.0076063997 0.11654098
0.45740002 -0.010169378 0.11656956
0.47020397 -0.013139569 0.11315349
0.48414287 -0.013591939 0.10577223
0.43271428 0.00072027423 0.11657767
0.44266656 0.00422977 0.11586902
0.45619345 0.0098227859 0.11781452
0.68207973 0.34053117 0.11416268
0.69649518 0.33816785 0.11101012
0.71123815 0.33703423 0.11276592
0.72756517 0.33989763 0.11543882
0.74308336 0.34306335 0.11151929
0.67399991 0.34597516 0.11827861
0.67881989 0.34671256 0.10956302
0.75844449 0.34750086 0.10786851
0.76929992 0.34920195 0.10855758
0.44800001 -0.016191686 0.12126436
0.45594114 -0.017263515 0.12135357
0.47193581 -0.022697551 0.12212326
0.44499999 -0.014288038 0.12009332
0.45894995 0.010046045 0.12155626
0.46899992 0.014154491 0.12263545
0.47099999 0.015658932 0.12217052
0.68699998 0.32992202 0.13441519
0.67128748 0.34117869 0.13068387
0.67969286 0.3359049 0.12682529
0.69544601 0.33253801 0.12744968
0.7116223 0.33638027 0.12680776
0.72874993 0.34094822 0.12696861
0.74307144 0.34348348 0.12799558
0.75099999 0.34490275 0.12391525
0.6732499 0.34599745 0.1237129
0.74599999 0.34549242 0.12935096
0.75733346 0.34647265 0.12999737
0.76499999 0.34577727 0.13486512
0.68699992 0.32992199 0.13940307
0.6584667 0.33725765 0.14830883
0.66630018 0.33568132 0.14227314
0.68095326 0.33195302 0.14205292
0.69642538 0.33202475 0.1429722
0.71189117 0.33480248 0.14312886
0.72703761 0.33743209 0.14387837
0.74081635 0.34012237 0.14225771
0.75333333 0.3438457 0.13949221
0.7575556 0.34587142 0.1368093
0.76499999 0.34577727 0.13609938
0.65899998 0.32923642 0.16402388
0.66691029 0.32869482 0.16034055
0.68054718 0.32871768 0.16032441
0.69333327 0.32960707 0.16194046
0.65741765 0.33470535 0.15843567
0.66479719 0.33143625 0.15463926
0.68308109 0.33136424 0.15327606
0.69663268 0.33190182 0.1558371
0.71181142 0.33411342 0.15594883
0.72758341 0.33596891 0.15914604
0.73717952 0.33468106 0.15835628
0.99999994 0.40439284 0.16338691
0.99731249 0.41313013 0.16073141
0.99999994 0.42214331 0.1615046
0.99500006 0.44732806 0.16417533
0.65503752 0.3280822 0.17446493
0.66489995 0.32662371 0.17274001
0.68044239 0.32847327 0.17153233
0.69299996 0.32944858 0.16745616
0.65199 0.33223557 0.17164278
0.68533337 0.33022755 0.1738954
0.69613898 0.33155912 0.17319672
0.71148705 0.33478448 0.17511024
0.72768432 0.33836246 0.17363657
0.74185205 0.34107453 0.17349884
0.75280553 0.34110531 0.17607035
0.99900001 0.40338331 0.16866316
0.9963854 0.41169003 0.17235442
0.98820001 0.43246937 0.17756169
0.99572003 0.42707166 0.17282821
0.98664701 0.4400135 0.17440526
0.99419975 0.44126922 0.16901197
0.65250599 0.32604161 0.18751732
0.665914 0.32331878 0.18670978
0.68219352 0.32594112 0.18811712
0.69300002 0.3286503 0.18909611
0.72527272 0.32978362 0.18593486
0.64400005 0.3305757 0.18107127
0.64638096 0.3309024 0.18854758
0.69955552 0.33186606 0.18598354
0.71405274 0.33410662 0.18453355
0.72486353 0.3325747 0.18420355
0.74168748 0.3372516 0.18301523
0.75242859 0.33931389 0.18085922
0.99900001 0.40398681 0.19384786
0.99635494 0.41239259 0.18790472
0.98699999 0.43337882 0.18196467
0.99428785 0.42614642 0.18875556
0.98622721 0.43817261 0.18493228
0.99204755 0.43974712 0.19021152
0.64139992 0.32768512 0.2049661
0.65182924 0.32554874 0.20175858
0.66658658 0.32351807 0.20226634
0.67976654 0.32585692 0.20395543
0.69499999 0.32927787 0.19541074
0.64233327 0.33023843 0.19925646
0.64664704 0.33079666 0.19678882
0.69731247 0.33156317 0.20555235
0.71147066 0.33606499 0.20280494
0.7256363 0.34038138 0.20471628
0.74119741 0.34044346 0.20365879
0.74199998 0.34555882 0.20742843
0.98742855 0.40260714 0.20775917
0.99514294 0.40134153 0.20282723
0.98310983 0.41297498 0.20493934
0.99179995 0.41168344 0.1978901
0.97257137 0.42906013 0.20710106
0.98114592 0.4271068 0.20098534
0.99140006 0.42635041 0.19589202
0.97299999 0.4366523 0.20764105
0.97899997 0.43758619 0.19948594
0.63771063 0.32456988 0.21875915
0.65177476 0.32509896 0.21719269
0.66775286 0.32536796 0.21644697
0.68209672 0.32576331 0.21754895
0.69644177 0.32539824 0.21871655
0.70639998 0.32337132 0.2200394
0.72399998 0.32782957 0.21933417
0.70180005 0.33102292 0.21294931
0.71379995 0.33431208 0.21427974
0.72784615 0.33932582 0.21498454
0.74054801 0.33999604 0.21405543
0.73499995 0.34585699 0.21140087
0.99799997 0.38908994 0.22424747
0.98500019 0.40030536 0.21787493
0.99435711 0.39484924 0.21777104
0.98029733 0.41289881 0.2171977
0.97299981 0.4314186 0.21287394
0.97701615 0.42599016 0.21836847
0.97299999 0.43586722 0.21078075
0.97499996 0.43676317 0.21357363
0.62751436 0.32111406 0.23463465
0.63581556 0.32039005 0.23161636
0.65119147 0.32191053 0.23205511
0.66778034 0.32681125 0.23150641
0.68227577 0.32877964 0.22943503
0.69785708 0.3280848 0.22789624
0.71054053 0.32590863 0.22924383
0.7262857 0.32877487 0.23768477
0.68447059 0.33117133 0.23525228
0.69775009 0.33204523 0.23511735
0.71213329 0.33213139 0.23721567
0.72320002 0.33120009 0.23881035
0.98766661 0.38931069 0.23759596
0.994793 0.38855603 0.23359653
0.98356527 0.39764678 0.23324458
0.9939 0.39117584 0.22685282
0.98203295 0.41230404 0.23260252
0.98221445 0.42679712 0.23316298
0.97929996 0.43742463 0.23758478
0.63941669 0.31867424 0.24159393
0.65034992 0.32060894 0.24339548
0.66553843 0.32456377 0.24684605
0.67913055 0.32847184 0.24959394
0.71433336 0.32739487 0.25155038
0.72747362 0.32902041 0.24554029
0.68352634 0.33172786 0.24523881
0.69697744 0.33488533 0.24802268
0.71236914 0.33462614 0.24800928
0.7256279 0.33157793 0.24409477
0.96933335 0.3889904 0.25234061
0.98341185 0.38796505 0.24942449
0.99621934 0.38619396 0.24677904
0.96781176 0.39732945 0.24837019
0.97921634 0.39396858 0.24307901
0.97160697 0.40808696 0.24905005
0.97713065 0.41461742 0.2462886
0.98119205 0.42809892 0.24788569
0.97000003 0.43787339 0.25417081
0.97872722 0.43814257 0.24715041
0.68358338 0.32813409 0.25735813
0.69593757 0.32855374 0.26061934
0.70811534 0.32806 0.25990096
0.69929415 0.3319712 0.25720915
0.70870972 0.33292648 0.25698647
0.96729332 0.38704097 0.26319391
0.98030901 0.38390949 0.26242381
0.99479163 0.38362354 0.26264566
0.96448261 0.39711946 0.26266706
0.96842331 0.412103 0.26424548
0.97600001 0.41713092 0.25788301
0.96727329 0.42840812 0.26316419
0.97790921 0.42606029 0.25788346
0.96577781 0.43609372 0.26063696
0.97499996 0.43597651 0.25526038
0.98682362 0.37292609 0.28167561
0.99564701 0.37200859 0.27880672
0.95168483 0.38389513 0.2805261
0.9645409 0.38110617 0.27613208
0.98092282 0.37795067 0.27636907
0.99438888 0.3781428 0.27423626
0.94121426 0.39987037 0.28356081
0.95280242 0.3971366 0.27840775
0.96255165 0.39803338 0.27213544
0.9397999 0.41226792 0.28318805
0.95346242 0.41285777 0.27801055
0.96126664 0.41276965 0.27182609
0.94154549 0.42260394 0.2829569
0.95360458 0.42456189 0.27791244
0.96102929 0.42872566 0.27276158
0.98699999 0.37471318 0.28706443
0.99500006 0.37346983 0.28939283
0.94159031 0.38667127 0.29335156
0.95068163 0.38087872 0.29188105
0.96505535 0.37770903 0.29313904
0.98046678 0.37708029 0.29165307
0.99484986 0.37686023 0.29384312
0.92624938 0.4005107 0.29398322
0.9356209 0.39498246 0.29051086
0.92387223 0.40906885 0.2916607
0.93221426 0.4113099 0.28611654
0.935 0.42261666 0.28627318
0.94191682 0.37203425 0.3132118
0.95127285 0.372049 0.31239066
0.9666667 0.37284076 0.31298962
0.9788 0.37370262 0.31310409
0.93885183 0.38323528 0.30847105
0.95089149 0.37848485 0.30504099
0.96653098 0.37798411 0.30654967
0.98199993 0.37855384 0.30756238
0.99462503 0.37921187 0.30680099
0.92663628 0.40136555 0.30172232
0.93407732 0.39623269 0.30801263
0.92399997 0.40720743 0.30004948
0.93339998 0.40841436 0.311463
0.958 0.35958201 0.32963812
0.96614283 0.35907012 0.32820272
0.92799997 0.37377903 0.32904756
0.93722028 0.36934933 0.32300311
0.95152736 0.36462706 0.32190502
0.96504635 0.3642509 0.32238799
0.98136514 0.36648363 0.32159591
0.9944827 0.36807144 0.32138547
0.92573953 0.38346252 0.32553101
0.93297219 0.38127515 0.31911725
0.9976666 0.37580931 0.31591916
