# .PCD v0.7 - Point Cloud Data file format
VERSION 0.7
FIELDS x y z
SIZE 4 4 4
TYPE F F F
COUNT 1 1 1
WIDTH 1186
HEIGHT 1
VIEWPOINT 0 0 0 1 0 0 0
POINTS 1186
DATA ascii
0.38408759 -0.19690196 -0.13647223
0.37118009 -0.18592681 -0.14239477
0.38013616 -0.18837304 -0.1378009
0.37094399 -0.17281543 -0.1423284
0.37822264 -0.17281927 -0.13742061
0.36902452 -0.15661518 -0.14022723
0.37729838 -0.15768163 -0.13637958
0.36762017 -0.14250509 -0.13919857
0.37728956 -0.14428946 -0.13578846
0.36739177 -0.12786694 -0.13907158
0.37611368 -0.12574798 -0.13540705
0.36549962 -0.11242014 -0.13934125
0.37750003 -0.11639384 -0.13570563
0.359 -0.090718657 -0.14082666
0.36461669 -0.097283319 -0.13847712
0.35754719 -0.082415171 -0.13944723
0.36473364 -0.082324117 -0.1372529
0.35822225 -0.066453442 -0.14012884
0.36325848 -0.067565002 -0.13755056
0.35731384 -0.052600853 -0.13922442
0.36243582 -0.05286599 -0.13688463
0.35658717 -0.036932655 -0.13842399
0.36166659 -0.038345568 -0.13637727
0.3564384 -0.021982834 -0.13784771
0.3615042 -0.023480596 -0.13598679
0.35483479 -0.0074494444 -0.13677286
0.36018181 -0.011853999 -0.13524656
0.35518545 0.0075008073 -0.1368154
0.35289031 0.022702852 -0.13644159
0.35128117 0.036878534 -0.13609315
0.34399998 0.058898259 -0.13527553
0.34847993 0.051634684 -0.13591468
0.34399998 0.060841136 -0.13527553
0.34719473 0.068682522 -0.13568698
0.34399998 0.08609847 -0.13527553
0.34682852 0.081923351 -0.13561775
0.34399995 0.094314039 -0.13527553
0.34512502 0.091948554 -0.13516112
0.41656813 -0.21275756 -0.12275909
0.42000002 -0.21545371 -0.12043799
0.38778368 -0.1979028 -0.13400975
0.39724118 -0.19927478 -0.12923542
0.41221976 -0.2024138 -0.12311707
0.38697064 -0.18620701 -0.13390434
0.39773899 -0.18759999 -0.12922356
0.41036206 -0.18887207 -0.12250745
0.38467896 -0.17158893 -0.1328063
0.39880329 -0.17290014 -0.12765005
0.40872404 -0.17289843 -0.12202107
0.38414052 -0.1572462 -0.13250086
0.39777413 -0.15698645 -0.12595949
0.40592021 -0.15958568 -0.12134188
0.38400352 -0.14220197 -0.1320938
0.39721689 -0.1430784 -0.12533887
0.40690604 -0.14038177 -0.1210672
0.38284725 -0.12694004 -0.13209747
0.39660206 -0.12753923 -0.1253289
0.40608624 -0.12879522 -0.12083057
0.37199998 -0.10616738 -0.13437334
0.38418683 -0.11263543 -0.13131925
0.39650115 -0.11231706 -0.12387006
0.40500009 -0.11658999 -0.12038397
0.37105522 -0.097176395 -0.13389574
0.382727 -0.097178727 -0.13018908
0.39626676 -0.09839052 -0.12350649
0.405 -0.10482623 -0.12038396
0.37100026 -0.082009047 -0.13319573
0.38152477 -0.082209401 -0.12803109
0.39454624 -0.083112597 -0.12242924
0.37088004 -0.067453377 -0.13368598
0.38202268 -0.067494728 -0.12772897
0.39170912 -0.067692883 -0.12156244
0.36973152 -0.052399356 -0.1329034
0.38121742 -0.052250389 -0.12647405
0.39207235 -0.05359127 -0.12112812
0.36901617 -0.037302811 -0.13217475
0.38158184 -0.037619062 -0.12495595
0.39085957 -0.036166541 -0.12064397
0.36837363 -0.0222039 -0.13178286
0.38242722 -0.022394687 -0.12476926
0.39014289 -0.02631088 -0.12044141
0.35841376 -0.0026446588 -0.13438237
0.36672491 -0.0074789622 -0.13083442
0.38233748 -0.0073857214 -0.12367656
0.35859007 0.0078276321 -0.1340836
0.36663371 0.0079121143 -0.12997735
0.38084835 0.0072103878 -0.12320425
0.35734814 0.022163868 -0.13376333
0.36681002 0.022510793 -0.12958542
0.38042513 0.022298822 -0.12325025
0.35589194 0.039085999 -0.13311273
0.36648887 0.037037909 -0.12825309
0.38080958 0.037707604 -0.12209345
0.35417324 0.052801959 -0.13237254
0.36735395 0.05261619 -0.12666808
0.37833157 0.051398348 -0.12165373
0.3535119 0.067679241 -0.13207689
0.36689904 0.067187212 -0.12557583
0.37593675 0.06877809 -0.12096819
0.35346523 0.083384119 -0.13085061
0.36645812 0.082589634 -0.12385478
0.3756316 0.078379862 -0.12082402
0.34348276 0.098965697 -0.13440247
0.35210791 0.097096778 -0.13070379
0.36488149 0.097613536 -0.12333699
0.34232154 0.11379332 -0.13289997
0.35232511 0.11247716 -0.12988554
0.36322314 0.11193216 -0.12333233
0.34202823 0.12797859 -0.13275276
0.35165659 0.12761828 -0.12787426
0.36414447 0.12693761 -0.12232176
0.3416 0.14220479 -0.13251045
0.35182798 0.14229201 -0.12787165
0.36441183 0.14252129 -0.12203497
0.3409211 0.15887883 -0.13149053
0.35137945 0.15778008 -0.12718059
0.3627221 0.15689011 -0.12214117
0.34041047 0.16968212 -0.13080505
0.35157266 0.17235129 -0.12548205
0.36120006 0.17178112 -0.1211921
0.35771427 0.1818804 -0.12467022
0.36178574 0.18366103 -0.12196064
0.44518635 -0.22780433 -0.10698924
0.419 -0.21156006 -0.11947521
0.42767531 -0.21577588 -0.11535528
0.44111875 -0.21753457 -0.10857574
0.41746259 -0.20276496 -0.1192868
0.42647338 -0.20193298 -0.11462863
0.44108391 -0.20253597 -0.10786968
0.41658139 -0.18401459 -0.11818563
0.42595243 -0.18854541 -0.11404906
0.43924519 -0.18806869 -0.10781428
0.41544804 -0.17260171 -0.11763535
0.4262974 -0.17211075 -0.1113775
0.43768585 -0.17273363 -0.10606423
0.41295671 -0.15668035 -0.11684282
0.42643282 -0.15768924 -0.11046862
0.43706948 -0.15878253 -0.10605779
0.40399998 -0.1475946 -0.1197608
0.41359994 -0.14304884 -0.11676878
0.42598948 -0.14238435 -0.10932209
0.43515787 -0.14500864 -0.1052738
0.41229364 -0.12767361 -0.11662129
0.42630324 -0.1275145 -0.10910049
0.43530765 -0.12385421 -0.10527021
0.40399998 -0.10880493 -0.1197608
0.41167596 -0.11218967 -0.11559936
0.42621976 -0.11228433 -0.10839286
0.435 -0.11855773 -0.1050879
0.40376928 -0.095053025 -0.11925792
0.41234323 -0.097522289 -0.11505458
0.42398417 -0.097854063 -0.10781812
0.40121594 -0.080992535 -0.11818799
0.41222489 -0.082451835 -0.11281076
0.42312717 -0.082366116 -0.10689815
0.3994512 -0.06767036 -0.11821453
0.41181231 -0.06720642 -0.11174498
0.42335182 -0.068488091 -0.10615726
0.39964002 -0.0517589 -0.11789119
0.41054529 -0.052908521 -0.11102011
0.42127132 -0.051924054 -0.10592633
0.39807382 -0.036873169 -0.11711504
0.41231033 -0.037377983 -0.11026096
0.42116669 -0.041934062 -0.1059584
0.389 -0.018191811 -0.1196553
0.39623594 -0.022866635 -0.1164562
0.41242787 -0.022446292 -0.10945787
0.42037499 -0.021639118 -0.10536951
0.3883684 -0.0058339271 -0.11891028
0.39634633 -0.00763286 -0.11474062
0.41077211 -0.0076026842 -0.10827444
0.38814276 0.0065779663 -0.11908482
0.39674285 0.0076340367 -0.11493196
0.41084641 0.0076527107 -0.1082729
0.38725603 0.022027466 -0.11873657
0.39809242 0.022967171 -0.11391692
0.41114414 0.021763002 -0.10753201
0.38726154 0.038566872 -0.11808506
0.39726591 0.036839195 -0.11228165
0.40702048 0.037391193 -0.10621809
0.38518301 0.05304436 -0.11765531
0.39650774 0.052623551 -0.11127152
0.40673196 0.052388653 -0.10619169
0.38332504 0.068005025 -0.11696941
0.39618686 0.067296155 -0.11005479
0.4071818 0.064740308 -0.10591459
0.37400004 0.087421007 -0.11961725
0.38127628 0.082425214 -0.11645989
0.39672524 0.08241573 -0.10920518
0.40544444 0.07941322 -0.1054339
0.37196594 0.099462211 -0.11898611
0.38149485 0.096879005 -0.1160583
0.3952584 0.097931892 -0.10903169
0.37142089 0.1129669 -0.11846375
0.3837136 0.11319315 -0.11408561
0.39428648 0.11175005 -0.10784469
0.37152711 0.12772299 -0.11795463
0.38299385 0.12721583 -0.11269733
0.39530843 0.12750991 -0.10665458
0.37118644 0.14304616 -0.11784424
0.38210008 0.14277276 -0.11185347
0.39275661 0.14104928 -0.10653657
0.37051865 0.15774894 -0.11772177
0.38133708 0.15742287 -0.11049508
0.39083326 0.15693915 -0.10567569
0.36793765 0.17245613 -0.11678369
0.38158128 0.17234135 -0.1098789
0.39064014 0.1706785 -0.10567757
0.36906075 0.18482333 -0.11600127
0.38120124 0.18715823 -0.10886329
0.39074993 0.18324135 -0.10542889
0.38517135 0.19677903 -0.10668764
0.47341681 -0.24280769 -0.092959203
0.47999999 -0.24816921 -0.090402491
0.44849998 -0.22814433 -0.10461041
0.45779276 -0.23094764 -0.1004014
0.47076273 -0.23280482 -0.09365347
0.44843903 -0.2175561 -0.10434591
0.45684627 -0.21739733 -0.10000268
0.4710955 -0.21749376 -0.093190417
0.44754225 -0.20275643 -0.10396738
0.45607531 -0.20205092 -0.099320062
0.47134662 -0.20340993 -0.092734583
0.44638413 -0.18675055 -0.10340194
0.45697126 -0.18752155 -0.097795881
0.4678975 -0.1868044 -0.091732696
0.44553566 -0.17241693 -0.10311676
0.45665199 -0.17253321 -0.097489297
0.46817699 -0.17344922 -0.091807418
0.44420692 -0.15670639 -0.10208955
0.45583498 -0.15765592 -0.094979718
0.4658421 -0.1616032 -0.090544321
0.43399999 -0.13649395 -0.10449621
0.44212535 -0.14192241 -0.10031459
0.45266873 -0.14361124 -0.09344171
0.43363634 -0.13112998 -0.10440867
0.4432992 -0.12728804 -0.09810143
0.4502857 -0.13393496 -0.091448151
0.43363154 -0.11036076 -0.10429692
0.44228479 -0.11250864 -0.097488828
0.43156388 -0.096380562 -0.10343774
0.44123831 -0.097469777 -0.096460938
0.45081821 -0.090495311 -0.091054887
0.43039629 -0.082931042 -0.10339548
0.44139406 -0.082649268 -0.098191991
0.45394954 -0.082699463 -0.092464179
0.43017155 -0.06685397 -0.10309532
0.44191954 -0.067374744 -0.097154982
0.45301762 -0.067270368 -0.091597266
0.42834181 -0.052151915 -0.10201038
0.4418658 -0.052333385 -0.094920896
0.45136362 -0.056728195 -0.090987474
0.42804876 -0.037331533 -0.10130828
0.4408555 -0.037415825 -0.093811788
0.41875002 -0.016148737 -0.1045403
0.42709512 -0.022730483 -0.1011695
0.440772 -0.022430357 -0.093661532
0.4177542 -0.0067906491 -0.10429031
0.42626375 -0.0074158162 -0.1004997
0.43990847 -0.0072185467 -0.093486778
0.4173294 0.0069591431 -0.10397702
0.42596418 0.0075880317 -0.099833161
0.44088453 0.0074656913 -0.093629099
0.41675794 0.023519494 -0.10369693
0.4268758 0.022371605 -0.098944254
0.43942559 0.022156071 -0.092768647
0.4145593 0.038223743 -0.10272366
0.42644116 0.036644068 -0.098212704
0.44120851 0.038192809 -0.092578694
0.41424924 0.052734751 -0.10230326
0.42732522 0.053035904 -0.095784448
0.43804145 0.050138511 -0.091690324
0.41338158 0.068013594 -0.10122448
0.42730016 0.067183279 -0.095181733
0.43586218 0.067973845 -0.091000028
0.40389466 0.087247223 -0.104467
0.411708 0.082267098 -0.10016666
0.42635539 0.082989365 -0.093375459
0.43628949 0.078327596 -0.091004625
0.40266651 0.098073371 -0.10421298
0.4115296 0.097596392 -0.1000064
0.42553228 0.097403623 -0.09341757
0.40205789 0.11260194 -0.10344321
0.41299981 0.11222107 -0.09905754
0.42692253 0.11271777 -0.093139969
0.4356316 0.11495297 -0.09073852
0.4026573 0.12743886 -0.1033907
0.41163898 0.1274678 -0.098032571
0.4255237 0.12661645 -0.092273243
0.43566665 0.12978768 -0.090487801
0.39953899 0.14342314 -0.1029893
0.41201288 0.14227794 -0.097175434
0.42372969 0.14257479 -0.091675289
0.43877551 0.14167783 -0.090899356
0.39666665 0.15716788 -0.10205675
0.41255921 0.15724143 -0.09540277
0.42074066 0.15648748 -0.090642832
0.39666998 0.17270777 -0.10223415
0.41176564 0.17215921 -0.095179304
0.42045832 0.17489269 -0.09049429
0.38847995 0.19067106 -0.10437915
0.39755645 0.18835737 -0.10164668
0.41123772 0.18722449 -0.094857469
0.42093939 0.18586972 -0.090515487
0.38799998 0.1976562 -0.10432287
0.39832538 0.19985031 -0.099493384
0.40986875 0.20203651 -0.093473345
0.4134593 0.21148539 -0.092160173
0.50279313 -0.258035 -0.077967241
0.47836366 -0.24304414 -0.089251958
0.48833004 -0.2460701 -0.08455576
0.49854684 -0.24760124 -0.077712677
0.4774332 -0.23233207 -0.089148104
0.48717487 -0.23235866 -0.083822541
0.49930656 -0.23278835 -0.077117018
0.47785699 -0.21759118 -0.089199454
0.48614952 -0.21730785 -0.083584554
0.49892387 -0.21811521 -0.077009648
0.47730014 -0.20083673 -0.088062279
0.48675692 -0.20334853 -0.082622088
0.49655756 -0.20224032 -0.076693602
0.47421059 -0.18705539 -0.086770207
0.48753679 -0.18709174 -0.081135832
0.49676716 -0.18832801 -0.076517873
0.47472328 -0.17227094 -0.087014556
0.48724902 -0.17263354 -0.080128305
0.49596295 -0.17440574 -0.075478487
0.46130002 -0.15198128 -0.087055624
0.47182938 -0.15988643 -0.085081697
0.48493338 -0.16400364 -0.079572067
0.44585362 -0.13964374 -0.080350526
0.45293334 -0.14378099 -0.086222343
0.44482806 -0.12736344 -0.08230231
0.45007688 -0.13364507 -0.088788718
0.44213724 -0.11254713 -0.082685165
0.44227102 -0.097383581 -0.082095228
0.45220402 -0.091038294 -0.086478122
0.44679999 -0.08968959 -0.076942511
0.45973438 -0.084554747 -0.084654078
0.47028941 -0.08103773 -0.079943247
0.48123989 -0.07821168 -0.075851634
0.46104613 -0.067301847 -0.087839603
0.47181708 -0.067522839 -0.081285335
0.48136863 -0.067631625 -0.075902753
0.44855553 -0.048061896 -0.089546256
0.45863739 -0.052589685 -0.086938716
0.47160122 -0.05265756 -0.079920299
0.48083994 -0.051423337 -0.075510032
0.4482381 -0.038003057 -0.0893794
0.45669964 -0.037397627 -0.086020939
0.47193682 -0.03758296 -0.079226524
0.48054537 -0.039542139 -0.075562477
0.44822222 -0.021621875 -0.089479722
0.45660517 -0.022497315 -0.085589767
0.47122657 -0.022431627 -0.078753494
0.47999999 -0.026255766 -0.075688116
0.44701546 -0.0047879838 -0.088661738
0.45745879 -0.0076140468 -0.084572658
0.46969369 -0.0080550537 -0.077731706
0.44718197 0.0073903478 -0.088449642
0.4573833 0.0075856554 -0.083461218
0.46904716 0.0072486466 -0.077267803
0.44739053 0.022238819 -0.089118987
0.45808434 0.022703405 -0.08365193
0.46724525 0.022434978 -0.076907843
0.44725722 0.037580237 -0.0893462
0.45628557 0.03756813 -0.084147215
0.46747485 0.037028503 -0.077209763
0.44352084 0.05316795 -0.087463625
0.45815665 0.052867334 -0.082079783
0.46769574 0.050877396 -0.077154793
0.44338441 0.067448132 -0.086496539
0.45767078 0.067192622 -0.079837285
0.46620679 0.068296358 -0.075911336
0.43300006 0.088110946 -0.089584619
0.44266716 0.082508892 -0.086346269
0.45648199 0.083123602 -0.079055876
0.46630773 0.076683663 -0.075727038
0.43270826 0.097521797 -0.089392975
0.44289312 0.097641639 -0.084620237
0.45520833 0.097293116 -0.077817865
0.43333337 0.10612722 -0.08953689
0.44246849 0.11280835 -0.084092297
0.45322096 0.11244389 -0.076591983
0.43305558 0.1287704 -0.089595355
0.44109833 0.12762704 -0.08404243
0.45313507 0.12753379 -0.076275088
0.42910647 0.14831004 -0.088763885
0.44323102 0.1427435 -0.083707415
0.45147523 0.14250331 -0.076286346
0.42773455 0.15791741 -0.08716017
0.44183025 0.15753922 -0.080703273
0.45138353 0.15497625 -0.076114111
0.42670256 0.17250216 -0.085920833
0.44152847 0.17244078 -0.078756563
0.45000002 0.16854288 -0.075313859
0.41742861 0.19382283 -0.089344949
0.4270927 0.1878709 -0.085322015
0.43940669 0.1872479 -0.077851973
0.41649693 0.2029884 -0.088140316
0.42592871 0.20235796 -0.083810247
0.43911815 0.20250563 -0.078242898
0.41727775 0.21226148 -0.087449513
0.42901349 0.2156388 -0.081719369
0.43933138 0.21690474 -0.076750599
0.44172731 0.22625679 -0.075414963
0.52399999 -0.27091804 -0.06825383
0.53377587 -0.27292007 -0.065611131
0.54541892 -0.27647564 -0.061866537
0.5079999 -0.25868472 -0.074638054
0.51822716 -0.26204297 -0.071714826
0.53219384 -0.2624453 -0.066541336
0.54245323 -0.26455182 -0.062229332
0.50573331 -0.24466068 -0.073631398
0.51736808 -0.24715242 -0.070289426
0.53168166 -0.24765037 -0.06383352
0.542 -0.25442326 -0.060104758
0.50624478 -0.23392475 -0.07410644
0.51687336 -0.23263568 -0.07053075
0.52979416 -0.23248225 -0.063675545
0.50492597 -0.21676238 -0.073428743
0.51742762 -0.21714996 -0.069057591
0.52868873 -0.21854284 -0.063247494
0.50420219 -0.20203398 -0.072646104
0.51702541 -0.20185776 -0.066077441
0.52689123 -0.2038395 -0.06121717
0.50483567 -0.18783046 -0.072828829
0.51691955 -0.18713395 -0.065656871
0.52616668 -0.18784109 -0.060046788
0.49399999 -0.16612573 -0.07470756
0.50332069 -0.17471558 -0.073554464
0.51540232 -0.17731857 -0.068062909
0.47 -0.15691718 -0.074869581
0.44029197 -0.14135543 -0.067135707
0.45000002 -0.1485697 -0.072990514
0.43267286 -0.12526587 -0.062456299
0.43773469 -0.1282139 -0.069309115
0.43081293 -0.11138965 -0.065304361
0.43602559 -0.11448732 -0.072060235
0.43136981 -0.1002183 -0.066023022
0.43944684 -0.093838215 -0.069230743
0.47299999 -0.090177253 -0.062369123
0.4467693 -0.089460745 -0.068145692
0.45517334 -0.087960452 -0.070603237
0.47386658 -0.086552322 -0.068438493
0.48650676 -0.081218801 -0.06792172
0.49915516 -0.076751322 -0.063675143
0.48923469 -0.067177512 -0.072173797
0.50210696 -0.067946792 -0.064807184
0.51099998 -0.060729355 -0.060582001
0.48795772 -0.052636445 -0.071671598
0.50231212 -0.052030548 -0.064996958
0.51119983 -0.053817794 -0.060793869
0.47900003 -0.03277117 -0.074757606
0.48751938 -0.037481461 -0.072135508
0.50236344 -0.037453722 -0.065251976
0.5105294 -0.038372252 -0.060781758
0.47842863 -0.019608926 -0.07466843
0.48663163 -0.022508856 -0.071699634
0.50186563 -0.02316663 -0.064089961
0.47656271 -0.0061060642 -0.073595367
0.48687303 -0.0075609814 -0.069399692
0.50165761 -0.0077154199 -0.063208595
0.47545716 0.0075135273 -0.073095329
0.48696685 0.0078991577 -0.068045616
0.50045502 0.0070626433 -0.06237983
0.4737187 0.022506693 -0.073109441
0.48670155 0.022596205 -0.067891881
0.49874035 0.022139661 -0.062210776
0.47397774 0.037859585 -0.072361849
0.48730841 0.037348535 -0.066252917
0.49726644 0.036384061 -0.061420418
0.47549978 0.0519372 -0.072297767
0.48601407 0.052896824 -0.066061981
0.49677137 0.052566089 -0.061213091
0.47266874 0.067076467 -0.072577223
0.48739624 0.067703776 -0.065693356
0.49549994 0.067515723 -0.060544319
0.46235484 0.086802453 -0.074251048
0.47123531 0.081991822 -0.071808323
0.48795405 0.082542799 -0.064967923
0.49499995 0.078960761 -0.060483225
0.46213603 0.0974949 -0.074000031
0.4723143 0.098656878 -0.069912806
0.48556885 0.09664689 -0.064165346
0.46060011 0.11264026 -0.073345929
0.47152391 0.11225028 -0.067406364
0.4811233 0.11280892 -0.061306261
0.45990926 0.12804048 -0.072675876
0.47231936 0.1276224 -0.065748721
0.48088884 0.12247048 -0.060956676
0.45856807 0.14293227 -0.07247708
0.47074533 0.14241453 -0.065591916
0.45855635 0.15746322 -0.072194263
0.46835348 0.15764143 -0.064992189
0.44836363 0.17809267 -0.074644841
0.45712358 0.17249984 -0.070388176
0.46697596 0.17179133 -0.06322474
0.44683334 0.18834957 -0.073940426
0.45703313 0.18731171 -0.069355585
0.46907768 0.1877849 -0.062857434
0.44665182 0.20205249 -0.073576704
0.4573158 0.20227675 -0.069465958
0.46929803 0.20244682 -0.062975243
0.44688907 0.21774079 -0.073266014
0.45744845 0.21745411 -0.068827271
0.46901521 0.21702743 -0.063091107
0.44766682 0.22789435 -0.072974809
0.45812044 0.23052812 -0.066523537
0.46721488 0.23098999 -0.061544307
0.46699998 0.24009551 -0.060452566
0.55399996 -0.28598166 -0.059200905
0.56444412 -0.28868693 -0.053335767
0.57170302 -0.29082638 -0.046936233
0.55167395 -0.27619264 -0.059008256
0.56265849 -0.27733132 -0.052755106
0.57114798 -0.27825963 -0.046150945
0.55003351 -0.26196754 -0.0575171
0.56228507 -0.26290345 -0.05096456
0.5716666 -0.26458114 -0.045843303
0.53773671 -0.24413365 -0.058992229
0.54677314 -0.24741839 -0.055271141
0.56185454 -0.24736017 -0.048561893
0.57000005 -0.25331002 -0.045736469
0.5366556 -0.2319165 -0.058289099
0.546363 -0.23261832 -0.054049294
0.56040668 -0.23304537 -0.048089169
0.53571528 -0.21747842 -0.058089297
0.54724663 -0.21710671 -0.052660156
0.55810839 -0.21762595 -0.047087427
0.53446269 -0.20200887 -0.05758249
0.547584 -0.20264506 -0.051281936
0.55649996 -0.20366164 -0.046298653
0.53253782 -0.1888943 -0.056509193
0.54369241 -0.1912899 -0.050279923
0.43200946 -0.14035399 -0.049834896
0.43678582 -0.14449929 -0.055338927
0.42942885 -0.12757435 -0.052389935
0.42444089 -0.11225948 -0.052497584
0.42720217 -0.099130638 -0.052813973
0.43736669 -0.09157376 -0.054764859
0.47599998 -0.09017434 -0.059697621
0.44050008 -0.089359142 -0.052321468
0.46250001 -0.089482695 -0.053899579
0.47304431 -0.086410932 -0.051795419
0.48680934 -0.081708863 -0.052905686
0.5019089 -0.078036763 -0.052985974
0.5118084 -0.07581652 -0.050885048
0.50749993 -0.074439362 -0.059554145
0.51753563 -0.068536736 -0.05460614
0.53064167 -0.065746702 -0.048103638
0.51902509 -0.05252333 -0.056971412
0.53114074 -0.052536465 -0.04972114
0.50899994 -0.031127505 -0.059730172
0.51748151 -0.037383862 -0.056600437
0.53100628 -0.037999697 -0.049411811
0.54018176 -0.036798242 -0.045641538
0.50788242 -0.021732841 -0.059237137
0.51630205 -0.021672754 -0.055415001
0.52959836 -0.022999611 -0.048587952
0.50804168 -0.0060631912 -0.058796793
0.51749098 -0.0072957836 -0.053703222
0.52807188 -0.0081065325 -0.04718677
0.5073275 0.0081166821 -0.058501165
0.51714867 0.0073922863 -0.052633885
0.52742875 0.007818725 -0.046183329
0.50651067 0.023092052 -0.058431093
0.51702589 0.021912638 -0.052842386
0.5279187 0.022568837 -0.046594914
0.50391227 0.038260143 -0.057545122
0.51711684 0.037213199 -0.052111827
0.52754641 0.037267953 -0.046765577
0.50413549 0.052981835 -0.057474062
0.51632696 0.052900814 -0.050991081
0.52697611 0.049243893 -0.046370339
0.50238329 0.067752585 -0.055073563
0.51327574 0.067089088 -0.047887843
0.50172275 0.08245606 -0.05485329
0.51348108 0.082649328 -0.047370192
0.49085286 0.10010603 -0.057929035
0.50160497 0.09702643 -0.053008538
0.51249993 0.096617825 -0.046759803
0.463 0.11999178 -0.045741513
0.47253579 0.11871749 -0.0465459
0.48836386 0.11362116 -0.054128189
0.50188196 0.11009609 -0.04884433
0.51104343 0.10917043 -0.045594413
0.44849998 0.1341821 -0.046045933
0.45743382 0.12882328 -0.04890123
0.47139654 0.12715238 -0.054574698
0.4838163 0.12238821 -0.056269277
0.4466427 0.14287409 -0.047451429
0.45755881 0.1421022 -0.053890355
0.46776459 0.14036939 -0.058621239
0.44720963 0.15319307 -0.047513895
0.45693392 0.15813997 -0.053053822
0.4655883 0.15861917 -0.05942997
0.46033794 0.16814844 -0.050079864
0.46952584 0.17457038 -0.055012167
0.47492161 0.18659437 -0.05516085
0.48355111 0.19142327 -0.048931397
0.47593692 0.20131399 -0.057930458
0.48670322 0.20301703 -0.051807351
0.49647367 0.20614645 -0.046496548
0.475797 0.21853082 -0.057913005
0.48698586 0.21758093 -0.05183892
0.49613222 0.21625008 -0.046241947
0.47362301 0.23254298 -0.056660522
0.48641542 0.23152006 -0.050597809
0.49676582 0.23362236 -0.046271395
0.47471419 0.24219722 -0.055529315
0.48661882 0.24565262 -0.049262859
0.49767399 0.24501947 -0.04647807
0.58299994 -0.30095181 -0.041135833
0.59439993 -0.3044126 -0.037516169
0.60537213 -0.30703941 -0.032263611
0.57969081 -0.29177791 -0.041973583
0.59256196 -0.29239175 -0.036013458
0.6032778 -0.29411367 -0.031478029
0.57928622 -0.27742791 -0.041578069
0.591919 -0.27716723 -0.03490923
0.60113323 -0.27684474 -0.030776741
0.57859999 -0.26235542 -0.042013042
0.59216172 -0.26300624 -0.035228875
0.60193342 -0.26264799 -0.030817701
0.56838888 -0.24403474 -0.044231117
0.57681525 -0.24741052 -0.040501628
0.59222329 -0.24784645 -0.033765972
0.60025001 -0.25270894 -0.030731514
0.56730908 -0.23174316 -0.043321662
0.5773657 -0.23214175 -0.038055334
0.59065729 -0.2333201 -0.032234848
0.56479776 -0.21685144 -0.042394422
0.57701546 -0.21725354 -0.036846668
0.58849972 -0.217996 -0.031795513
0.563232 -0.20578089 -0.043190353
0.57545096 -0.20686053 -0.038951837
0.58499998 -0.20947188 -0.033254229
0.42711109 -0.15021713 -0.03320324
0.42675197 -0.1419055 -0.037344489
0.41718754 -0.12494761 -0.032425836
0.42373887 -0.12822753 -0.039151371
0.41620055 -0.11126588 -0.035890058
0.42101893 -0.11535413 -0.042114768
0.41752219 -0.10293044 -0.03558268
0.42550269 -0.096721515 -0.036663052
0.43757147 -0.090637304 -0.033697866
0.43399999 -0.089921497 -0.038675144
0.44140974 -0.089028224 -0.036477618
0.45907849 -0.087605141 -0.036170941
0.47256449 -0.084373236 -0.037411004
0.48651931 -0.079736568 -0.03718292
0.50134218 -0.077006377 -0.039106973
0.51242864 -0.075484388 -0.040192138
0.52566665 -0.075549118 -0.034968011
0.51599997 -0.074332446 -0.04072722
0.53297222 -0.07131125 -0.040583253
0.54600632 -0.066564627 -0.038673449
0.56047481 -0.065134294 -0.032914679
0.53755867 -0.052393585 -0.044433642
0.54644853 -0.05215041 -0.04030985
0.56061602 -0.05273198 -0.033857383
0.5379374 -0.038269553 -0.044573519
0.54684544 -0.037258893 -0.039764628
0.55889791 -0.038029764 -0.03278337
0.53668118 -0.021620058 -0.04342404
0.54686743 -0.022760818 -0.037770834
0.55739397 -0.02262854 -0.031708572
0.5354284 -0.0067534586 -0.042604577
0.5469504 -0.0076875198 -0.03692415
0.55745465 -0.0077589462 -0.031644642
0.5355435 0.0067239474 -0.042310968
0.54689848 0.0080246534 -0.03635053
0.55641162 0.0077213603 -0.031179342
0.53521979 0.023815926 -0.042473864
0.54716253 0.022228902 -0.035599712
0.55537492 0.017455313 -0.030561924
0.53433889 0.037705 -0.04204987
0.54573083 0.037453398 -0.035030898
0.52236366 0.058974158 -0.0439041
0.53347504 0.053191341 -0.04031292
0.54369354 0.051319633 -0.033421982
0.52100825 0.067812048 -0.042708214
0.53234464 0.067215487 -0.03726792
0.543706 0.067388661 -0.032217227
0.52085578 0.082194313 -0.043096554
0.53145206 0.082964748 -0.037192494
0.54437107 0.08172866 -0.032044008
0.51924741 0.097832806 -0.043073691
0.53186995 0.097552523 -0.036544103
0.54276097 0.097339846 -0.031212615
0.44833332 0.11908377 -0.031489681
0.45663044 0.11622944 -0.035656635
0.47068569 0.11282677 -0.037036128
0.48577145 0.11477554 -0.042294987
0.50470585 0.11479452 -0.043418746
0.51861203 0.11136138 -0.041279774
0.53058851 0.11238232 -0.03573605
0.54575866 0.11343804 -0.031686794
0.44438797 0.12836817 -0.036329672
0.45325017 0.12313849 -0.041479059
0.53324997 0.12055711 -0.031601842
0.54387498 0.12120424 -0.0311336
0.44106397 0.14244211 -0.037222702
0.44193631 0.15704517 -0.036916908
0.45044443 0.1638231 -0.043815225
0.44659996 0.16836044 -0.034994669
0.45374358 0.17228734 -0.0388068
0.4617143 0.18102019 -0.033856817
0.47220001 0.18837321 -0.032588825
0.491 0.19419913 -0.044546798
0.49155271 0.19777359 -0.036997572
0.49986768 0.20569016 -0.039420225
0.50326443 0.21712533 -0.040257074
0.51342094 0.22141676 -0.033135831
0.50369436 0.23189621 -0.041137598
0.51487672 0.23284516 -0.033482384
0.52499998 0.2334858 -0.030267078
0.49400002 0.25238252 -0.044420466
0.50308371 0.24781975 -0.041663628
0.51536095 0.24775597 -0.034224428
0.52530777 0.24718291 -0.030284824
0.50425714 0.25696278 -0.039518811
0.51742446 0.26048881 -0.03321686
0.63999999 -0.33089229 -0.015212622
0.61199999 -0.31602073 -0.028567363
0.62205666 -0.31846619 -0.023466097
0.63603663 -0.32196823 -0.017452553
0.61199981 -0.30752763 -0.028864563
0.62242931 -0.30760157 -0.024319461
0.63495189 -0.3076022 -0.0177262
0.60974467 -0.29096374 -0.028343875
0.62227386 -0.2926248 -0.023220271
0.63256055 -0.29283297 -0.017180292
0.60770315 -0.27733997 -0.027687334
0.62219977 -0.27726686 -0.021250939
0.63219362 -0.27920875 -0.016078707
0.6080001 -0.26188749 -0.027131829
0.62092155 -0.26278594 -0.020292003
0.63021433 -0.26227197 -0.015996825
0.59899998 -0.2463825 -0.02970108
0.60653037 -0.24788514 -0.026675515
0.62114948 -0.24721661 -0.019994125
0.63016671 -0.25208458 -0.015995614
0.59728569 -0.23122229 -0.028996188
0.60686409 -0.23209533 -0.024702625
0.61894602 -0.233412 -0.01838929
0.59579486 -0.21971118 -0.028184365
0.60678184 -0.22145337 -0.022376753
0.6159091 -0.2227536 -0.016987666
0.41837499 -0.1503989 -0.016442508
0.4219285 -0.15078631 -0.022342168
0.41683474 -0.14062731 -0.019667329
0.42170575 -0.14466944 -0.02579537
0.41347212 -0.12736797 -0.022153372
0.41999999 -0.13412416 -0.029634736
0.40400001 -0.10945684 -0.015469366
0.4091773 -0.11217402 -0.022841999
0.4127956 -0.10000332 -0.021644343
0.42607206 -0.094739705 -0.023592258
0.44120398 -0.091598578 -0.023269884
0.4477579 -0.089146405 -0.022548571
0.45717928 -0.087375812 -0.022448443
0.47323492 -0.083208352 -0.022047468
0.48387757 -0.077814251 -0.023574438
0.48838896 -0.074520521 -0.022012923
0.49499995 -0.073405042 -0.024943624
0.56680846 -0.067227572 -0.028940091
0.5762285 -0.065244719 -0.024637964
0.59264696 -0.065939456 -0.018110875
0.60000002 -0.072032154 -0.015229896
0.56831384 -0.05263577 -0.029095622
0.57730073 -0.052343328 -0.024011221
0.5918141 -0.052079085 -0.017244698
0.5663684 -0.036573753 -0.028625084
0.57777333 -0.037401028 -0.023222445
0.58911836 -0.038357478 -0.016974365
0.56525987 -0.022300445 -0.027327696
0.57690448 -0.022428956 -0.021033401
0.58763409 -0.023721037 -0.016163027
0.56485432 -0.0068066176 -0.0264199
0.57487386 -0.0082498044 -0.019360943
0.56138891 0.0076767555 -0.022433231
0.55086714 0.024370871 -0.021839552
0.5563845 0.017556038 -0.024757216
0.5503279 0.037500542 -0.022674929
0.55238062 0.051131599 -0.024533382
0.55646402 0.053680535 -0.021689801
0.55022359 0.068219081 -0.028258942
0.56105816 0.066531852 -0.02154793
0.57278579 0.072459668 -0.016517401
0.55187219 0.080441013 -0.028668625
0.5615384 0.082541622 -0.024780516
0.57429552 0.083793953 -0.018581519
0.54897416 0.097913019 -0.028260034
0.56172419 0.098004177 -0.023846997
0.57368702 0.096745193 -0.018443024
0.44740725 0.11844593 -0.022341033
0.45556992 0.11321735 -0.022220982
0.4706496 0.10864753 -0.023652006
0.47999999 0.10774434 -0.02612387
0.55065906 0.11100487 -0.02885595
0.56251854 0.1136786 -0.023211595
0.57206213 0.11113918 -0.016897528
0.44231427 0.12738849 -0.02256632
0.55207688 0.1214889 -0.028467849
0.56330389 0.12349057 -0.020488597
0.56999999 0.120588 -0.015847884
0.43795002 0.14243436 -0.022399917
0.43871504 0.15713441 -0.022573497
0.44610649 0.17010473 -0.023066146
0.45178577 0.17564882 -0.019626962
0.45699999 0.18185771 -0.025240771
0.47099999 0.18894893 -0.028673733
0.49200004 0.20054913 -0.029555282
0.49766666 0.20527038 -0.029494211
0.51919222 0.21940775 -0.027871603
0.52649999 0.22416824 -0.02674151
0.52400005 0.22982793 -0.028941277
0.53068858 0.23350623 -0.026316436
0.54603362 0.23527838 -0.019202467
0.53270686 0.24754125 -0.026715579
0.54554003 0.24767335 -0.019375268
0.52399999 0.26940054 -0.028941277
0.53273064 0.26274082 -0.026188929
0.54590237 0.2622622 -0.01912031
0.53502047 0.27277175 -0.024122441
0.54530853 0.27497303 -0.018128777
0.67149991 -0.34650046 -0.002010331
0.64399999 -0.33296037 -0.013749138
0.65274304 -0.33425888 -0.011383136
0.66802806 -0.33770594 -0.0049936371
0.6759091 -0.33636561 -0.0007988225
0.64359999 -0.31821463 -0.013740598
0.65101337 -0.32223842 -0.010726155
0.66539299 -0.32310891 -0.0043587927
0.67533338 -0.32845515 -0.0013429404
0.64158142 -0.30599627 -0.01279271
0.65087229 -0.30725831 -0.0071426695
0.66222727 -0.30998856 -0.0019471757
0.64031982 -0.29199904 -0.011964781
0.65075862 -0.29254514 -0.0048934566
0.63915646 -0.27708155 -0.011990423
0.65025437 -0.27749249 -0.0046956916
0.63815522 -0.26220101 -0.011664702
0.64923716 -0.26304176 -0.0040846262
0.62866664 -0.24455121 -0.014774097
0.63686103 -0.24824153 -0.010917611
0.6493423 -0.24887744 -0.0036554921
0.62621206 -0.2330109 -0.013811823
0.63467741 -0.23698646 -0.0098554548
0.64699996 -0.23950271 -0.0044182483
0.62049997 -0.22418639 -0.014749117
0.41202629 -0.15099509 -0.0050700018
0.4101322 -0.14214657 -0.0072401562
0.40279555 -0.12434281 -0.0036756697
0.40747994 -0.12898876 -0.0091253864
0.40152258 -0.1118307 -0.0068609663
0.40593481 -0.11625085 -0.013365612
0.40269175 -0.10174877 -0.0046967533
0.40971124 -0.098307677 -0.0086669642
0.42822146 -0.09383855 -0.0087599838
0.43797749 -0.091309495 -0.0057288101
0.44451162 -0.089066215 -0.0065100309
0.45727023 -0.086907864 -0.0083433082
0.47317559 -0.082569167 -0.0082171727
0.48114449 -0.078436367 -0.0064270901
0.6086511 -0.076815173 -0.0083350223
0.61499995 -0.075817786 -0.00072684715
0.48100001 -0.074433669 -0.014149438
0.59881818 -0.065127492 -0.014233753
0.60745376 -0.068190098 -0.0088636
0.61788118 -0.065904237 -0.0024170422
0.59721732 -0.051253024 -0.013860112
0.60692155 -0.052695584 -0.0096513955
0.62059796 -0.052824151 -0.0031431159
0.5965482 -0.03721685 -0.012765018
0.60769337 -0.037313823 -0.0070359348
0.61668265 -0.038216356 -0.00169866
0.59432065 -0.021594208 -0.012644553
0.60646838 -0.022707656 -0.0053671869
0.61499995 -0.029174332 -0.0012229757
0.57810098 -0.0033606552 -0.0094599174
0.59167272 -0.0093761524 -0.0082016829
0.60295236 -0.011810043 -0.0033030331
0.55220193 0.012144976 -0.0060384702
0.56041652 0.0054596378 -0.0084796362
0.57128572 0.00055557693 -0.0034368993
0.54798949 0.022628553 -0.0077302461
0.54611021 0.03754767 -0.0077028451
0.55000484 0.050852973 -0.0077523394
0.55655807 0.058188632 -0.0069619017
0.56429368 0.063698269 -0.0075458223
0.57618827 0.071149506 -0.0077570742
0.58499998 0.074201196 -0.00069139752
0.58157754 0.082378261 -0.011453516
0.58965594 0.082994841 -0.0043469067
0.58085221 0.097004853 -0.01116077
0.58964705 0.097787239 -0.0037808821
0.44845954 0.11909811 -0.011030465
0.45520163 0.11404834 -0.0080390759
0.46699998 0.10708704 -0.013737609
0.58056831 0.11221149 -0.012665199
0.5913738 0.11294298 -0.0054350244
0.44448963 0.12766445 -0.008180364
0.45096874 0.12173828 -0.002055102
0.56899995 0.12680374 -0.013984009
0.57706749 0.12364596 -0.011824957
0.59145033 0.1268032 -0.0042442833
0.44217125 0.14259836 -0.0079448326
0.45019999 0.14464429 -0.00053208449
0.59031987 0.13664189 -0.0032038449
0.44286209 0.15688643 -0.0076040472
0.44999999 0.15075204 -0.0005318484
0.44780356 0.16706322 -0.0097786998
0.45277324 0.1733983 -0.010941169
0.55262494 0.23640963 -0.014473189
0.56039464 0.23770222 -0.010569824
0.57783329 0.23899844 -0.002748112
0.55299991 0.24732651 -0.014879552
0.56243861 0.24777813 -0.0095879659
0.57347232 0.24636881 -0.0025330901
0.55374992 0.26280549 -0.014949367
0.56306142 0.26274535 -0.010167408
0.57330322 0.26261032 -0.0029900654
0.55188888 0.27789494 -0.013759779
0.56232643 0.27749547 -0.008608358
0.57358128 0.27671504 -0.0025034396
0.56449991 0.28771931 -0.0055941455
0.57171422 0.28997803 -0.0012026018
0.67339993 -0.34729162 0.00072559825
0.67596871 -0.34727207 0.005372386
0.67349994 -0.34332097 0.00029066324
0.68003869 -0.33758944 0.0046414379
0.67278945 -0.31773371 0.0022907411
0.67842674 -0.32322508 0.0063571427
0.66791499 -0.30751744 0.0051957234
0.67540008 -0.31344688 0.010862123
0.65857154 -0.29138261 0.0010433326
0.66320729 -0.29276481 0.0067336629
0.65726179 -0.27724177 0.0024073583
0.6625182 -0.27696362 0.0091066901
0.65635192 -0.26283234 0.0018158881
0.66310787 -0.26321629 0.0076779658
0.65725017 -0.24951309 0.0018283855
0.66058815 -0.25155568 0.0059913723
0.40294731 -0.15145341 0.012968742
0.40792686 -0.15179026 0.0062516346
0.40158352 -0.14076385 0.010340916
0.40638196 -0.14433962 0.0039690277
0.39896208 -0.12736283 0.0076684486
0.40500003 -0.13423558 0.00050150068
0.39577195 -0.11205473 0.0076248045
0.39969793 -0.10017733 0.0078029437
0.41034067 -0.095001973 0.0062828958
0.42882991 -0.093078941 0.0085694874
0.43689156 -0.091044575 0.0062480802
0.44259778 -0.089141443 0.0077714124
0.45704752 -0.086059853 0.0087047191
0.47163913 -0.083933972 0.0043192399
0.48290744 -0.080249555 0.0030050853
0.62296879 -0.076390304 0.0054644593
0.62437981 -0.069146715 0.0035621214
0.63325524 -0.065319285 0.0088766012
0.62709099 -0.051831029 0.00100688
0.63385868 -0.052614272 0.0075880541
0.62435609 -0.036974274 0.0037921267
0.6322999 -0.037631053 0.010224764
0.61015391 -0.018013833 0.0040758466
0.62040484 -0.025838628 0.005336293
0.63112497 -0.028030179 0.01211103
0.56594437 -0.0011243491 0.012414256
0.5765385 -0.0017335967 0.0067513199
0.59108919 -0.0047781202 0.0061563971
0.60601896 -0.010585268 0.0061279661
0.54994643 0.011217808 0.0077840178
0.55947381 0.0039906148 0.0071420013
0.57139999 0.00055568834 0.0020874988
0.53879046 0.027294125 0.0085209887
0.5432964 0.02154476 0.0070007751
0.53899997 0.030096503 0.0084941192
0.5457896 0.037418716 0.0072379299
0.55210054 0.050361343 0.0087605929
0.55675989 0.055612545 0.0054028542
0.55266666 0.061479405 0.013910619
0.56316662 0.064087801 0.0080407886
0.57546651 0.069752514 0.0051244437
0.58619994 0.074353404 0.0044149482
0.59519559 0.08034125 0.0050608092
0.60466248 0.086174928 0.0079262955
0.59718394 0.098563753 0.0010443371
0.60753238 0.097107112 0.007081198
0.61595231 0.099188872 0.012594602
0.45829424 0.11708767 0.002981944
0.59716207 0.11130022 0.0010914016
0.60627145 0.11264521 0.0079349689
0.61499989 0.11116955 0.013991564
0.44876006 0.13159494 0.00080217357
0.45278212 0.12725912 0.0047255242
0.59780002 0.13032408 0.00074022549
0.60750932 0.12679303 0.0062208478
0.61543155 0.12904866 0.01279089
0.44899994 0.13912624 0.00037486572
0.45529321 0.14263561 0.0054016714
0.59839278 0.14042588 0.0011901525
0.60714662 0.13959229 0.0074429731
0.61499995 0.13705501 0.013164687
0.44853842 0.15605168 0.00019355951
0.45590347 0.1546586 0.0043304898
0.583 0.23905374 0.0007227012
0.58599997 0.23981105 0.002616537
0.58027774 0.24999629 0.0024919843
0.58759242 0.24748662 0.0068308352
0.58037889 0.2619966 0.003084962
0.59093094 0.26260173 0.010599497
0.58069342 0.27755433 0.0015385633
0.59283155 0.27810231 0.0092623793
0.57941264 0.29181296 0.0031121557
0.59031582 0.29195869 0.010355303
0.58399999 0.30024791 0.0063765524
0.58827269 0.3014513 0.011905827
0.39707404 -0.15156214 0.024363998
0.39612678 -0.14249395 0.022504456
0.39368179 -0.12736312 0.022657618
0.38876072 -0.11179739 0.023118086
0.39162093 -0.11179032 0.022288484
0.40013409 -0.10156057 0.022392401
0.41104233 -0.095557354 0.022954697
0.42737028 -0.091971233 0.02198739
0.43713889 -0.09047278 0.023429336
0.44396949 -0.088026695 0.023393624
0.45326537 -0.084604062 0.021271201
0.56487155 -0.0021517135 0.022746384
0.54691505 0.010753365 0.021943279
0.55966383 0.0034796018 0.023014857
0.54268306 0.022449 0.022162255
0.53805351 0.039177377 0.027673913
0.54382145 0.036852863 0.02101275
0.5383333 0.045695852 0.028894177
0.54522723 0.052096378 0.022039065
0.5516817 0.062776782 0.018037394
0.55799991 0.068076834 0.016445987
0.61149997 0.087924697 0.01506298
0.61881977 0.099006571 0.016744547
0.61399996 0.11751156 0.015124561
0.61610532 0.11262649 0.016694648
0.61642194 0.1266637 0.016466791
0.59652948 0.26383448 0.016819933
0.60000002 0.26974553 0.018651903
0.598625 0.28422073 0.017281514
0.60047197 0.27742589 0.017738912
0.5940448 0.29231751 0.017879846
0.59072405 0.3018637 0.017969759
0.39615381 -0.15176028 0.032194916
0.39800662 -0.14253941 0.034385622
0.40989611 -0.13929926 0.041606382
0.3980855 -0.12726913 0.033816725
0.41169822 -0.12805004 0.041351072
0.39816681 -0.11203822 0.034257088
0.40948814 -0.11225115 0.041793697
0.40173182 -0.10279115 0.033281066
0.41163379 -0.098490007 0.037515827
0.42667043 -0.092941411 0.037709624
0.43650797 -0.090975367 0.039737962
0.44397298 -0.086850978 0.037214354
0.45050001 -0.082799211 0.031810988
0.55152625 -0.0019245432 0.041680772
0.5592308 -0.002320274 0.034324173
0.53687268 0.01143312 0.042325988
0.54576015 0.0074515617 0.037101559
0.55757898 0.00252903 0.032431744
0.53197503 0.023060007 0.040331751
0.54327047 0.02147688 0.033245612
0.5337072 0.037575919 0.037702873
0.54039997 0.031307805 0.031446747
0.53733635 0.048507862 0.039549954
0.54418433 0.054070093 0.035176247
0.55099994 0.060108121 0.031797074
0.4170588 -0.13994405 0.046320319
0.42505363 -0.13815567 0.05091818
0.43850014 -0.13750309 0.057562731
0.41869688 -0.12876023 0.045769013
0.42666486 -0.12745093 0.050052941
0.44051105 -0.12790519 0.057098933
0.41716954 -0.11101502 0.046577699
0.42701739 -0.11257529 0.051323362
0.43851584 -0.11315499 0.057510316
0.41707507 -0.10130041 0.046292577
0.4281925 -0.09848249 0.051032491
0.43798974 -0.093884304 0.054427892
0.44064373 -0.087708637 0.052442972
0.54735225 -0.0020902213 0.052598208
0.53257656 0.0093783028 0.052726418
0.54285884 0.0022093283 0.051173802
0.52367407 0.02455369 0.048543204
0.5267942 0.02164601 0.053741384
0.52222961 0.039293837 0.057206657
0.52788001 0.036766361 0.050628431
0.52303034 0.048503257 0.056379575
0.53124988 0.049383953 0.04888295
0.44473684 -0.13656309 0.061564121
0.44999999 -0.13535365 0.065174669
0.44762972 -0.12859774 0.061788175
0.45193508 -0.12677579 0.066674002
0.44624397 -0.11172111 0.063685097
0.45064384 -0.11424225 0.068490595
0.44457132 -0.098007686 0.064418569
0.45000002 -0.10340276 0.069530919
0.44463164 -0.088611715 0.061547011
0.53899992 -0.00078047905 0.070672885
0.54123205 -0.0024742535 0.066327594
0.52359998 0.014365564 0.074059919
0.53231668 0.0078063984 0.067797951
0.54033327 0.0011790193 0.061911386
0.51927251 0.024137819 0.071662001
0.52813911 0.021205369 0.065020233
0.51901251 0.037353557 0.067910582
0.52511114 0.030544868 0.061885409
0.52225804 0.047872391 0.067117922
0.52499986 0.051256809 0.065279648
0.52249992 -0.0013198951 0.088458113
0.53322446 -0.0027976478 0.082850151
0.54075003 -0.0041651549 0.077553928
0.51851314 0.0088089993 0.084210001
0.53010607 0.0044222707 0.0788076
0.50679761 0.025215939 0.083403379
0.51270133 0.019041497 0.080917969
0.50625581 0.036002681 0.084243819
0.51152164 0.040361457 0.0787718
0.50822216 0.04669502 0.089050092
0.5176447 0.049811874 0.082557052
0.50799996 -0.00032571409 0.10267138
0.51690364 -0.0035627813 0.097765975
0.52499998 -0.0045725284 0.09001337
0.50397748 0.0081894053 0.1015544
0.51343471 0.0073118331 0.094603442
0.49399999 0.021206541 0.10362773
0.49931151 0.02280172 0.097528741
0.51154995 0.016942918 0.092925325
0.49885482 0.037385214 0.097266316
0.50267231 0.047716927 0.095787808
0.5072692 -0.0010188177 0.11614566
0.51425701 -0.0048743812 0.1129059
0.49372724 0.013386554 0.11529884
0.50044495 0.0068986616 0.11195791
0.50999999 0.00049598143 0.11130404
0.4932332 0.018925002 0.11255019
0.49632511 0.025226258 0.11197705
0.49839351 0.037556745 0.11269034
0.49798647 0.048970528 0.1145875
0.50737429 -0.0037294661 0.12711418
0.51072228 -0.0082490193 0.12747771
0.50390363 0.0069489828 0.12720905
0.51000011 0.012429155 0.13393223
0.50073338 0.022841312 0.12762439
0.50999999 0.015309577 0.13393225
0.50056624 0.037231129 0.12747934
0.50247663 0.050893389 0.1272476
0.50409025 -0.0045424593 0.14166628
0.51013345 -0.0085591143 0.13651842
0.49347371 0.013429958 0.14863713
0.5033983 0.0071154325 0.14281209
0.51014298 0.012891639 0.13753253
0.49307019 0.021195449 0.14878051
0.50078422 0.022819245 0.14216402
0.51022226 0.016093593 0.13778646
0.49289051 0.036833648 0.14890796
0.5009262 0.037509203 0.14234829
0.50466269 0.051034193 0.14274815
0.4997375 -0.0019807357 0.15736352
0.49262506 0.012747651 0.15808769
0.49779814 0.0052988292 0.15728326
0.48911518 0.022573695 0.15685289
0.48986232 0.037487589 0.15704401
0.49145716 0.046474606 0.15310243
0.49700001 0.050176933 0.15099815
0.49167511 -0.001308747 0.17313504
0.49542859 -0.0015170772 0.16727339
0.47796151 0.012801916 0.17546381
0.48795342 0.0076643601 0.17184792
0.49505714 0.0028777691 0.1669893
0.46175 0.023922076 0.17080349
0.47345552 0.023552669 0.17153719
0.48776641 0.021595813 0.16939171
0.47416988 0.035599735 0.17080151
0.48558706 0.036902484 0.16649723
